# .PCD v0.7 - Point Cloud Data file format
VERSION 0.7
FIELDS x y z
SIZE 4 4 4
TYPE F F F
COUNT 1 1 1
WIDTH 1551
HEIGHT 1
VIEWPOINT 0 0 0 1 0 0 0
POINTS 1551
DATA ascii
-0.13072 -0.068630002 0.12771
-0.16391 -0.067400001 0.038720001
-0.16399001 -0.067359999 0.08506
-0.16402 -0.067340001 0.17772999
-0.16393 -0.067380004 0.13139001
-0.16376001 -0.067450002 0.038720001
-0.16384999 -0.067419998 0.08506
-0.16401 -0.06735 0.13139001
-0.16392 -0.067390002 0.08506
-0.16398001 -0.067369998 0.038720001
-0.16404 -0.067340001 0.13139001
-0.16406 -0.067330003 0.17772999
-0.16402 -0.067359999 0.038720001
-0.16403 -0.06735 0.08506
-0.16381 -0.067429997 0.13143
-0.16398001 -0.067359999 0.17773999
-0.16381 -0.067429997 0.085069999
-0.16414 -0.067199998 0.13143
-0.16406 -0.067299999 0.085069999
-0.16408999 -0.067280002 0.17773999
-0.16384999 -0.067419998 0.13142
-0.16411 -0.067249998 0.13142
-0.16389 -0.067400001 0.17776
-0.16417 0.067110002 0.13141
-0.16417 -0.067120001 0.13141
-0.16413 -0.067129999 0.084299996
-0.16418999 -0.067029998 0.17768
-0.16418999 0.067019999 0.17768
-0.16407999 0.067230001 0.084700003
-0.16416 -0.067110002 0.1777
-0.16566999 0.066710003 0.084090002
-0.14089 0.054439999 0.21434
-0.16382 0.067440003 0.084830001
-0.16374999 0.067460001 0.13135999
-0.16374999 0.067460001 0.038649999
-0.16415 0.067060001 0.1309
-0.16404 0.067270003 0.037930001
-0.16415 0.06701 0.084069997
-0.16416 0.067120001 0.1313
-0.17915 0.0080599999 0.06024
-0.02001 -0.11215 0.13605
-0.16616 0.06662 0.037379999
-0.16379 0.067450002 0.084919997
-0.17915 0.044849999 0.060260002
-0.16419999 0.064230002 0.042059999
-0.16419999 -0.066270001 0.040339999
-0.16419999 -0.066480003 0.08619
-0.16419999 -0.066679999 0.13203999
-0.16419999 -0.066880003 0.17789
-0.16417 -0.067100003 0.1312
-0.16382 0.067440003 0.03847
0.088959999 -0.0757 0.17719001
-0.16412 0.067089997 0.084239997
-0.04724 -0.10514 0.1548
0.10657 -0.0076199998 0.034200002
-0.020740001 -0.11525 0.18143
0.10087 -0.044939999 0.086110003
-0.16406 -0.067270003 0.03836
0.053380001 0.10132 0.14464
-0.16408999 0.067120001 0.037579998
-0.14127 -0.05288 0.21537
-0.10135 -0.069849998 0.1797
-0.1767 -0.00050000002 0.063409999
-0.16419999 -0.066079997 0.040059999
-0.16419999 -0.065899998 0.085330002
-0.12751999 0.068980001 0.19568001
-0.16419999 -0.066550002 0.13293999
-0.16419999 -0.06684 0.17818999
-0.15606999 0.068070002 0.16173001
-0.15550999 0.068429999 0.16173001
-0.12752999 0.068740003 0.19652
-0.16568001 -0.066540003 0.085079998
-0.1647 -0.066289999 0.039969999
-0.1647 -0.066699997 0.13167
0.10366 -0.050650001 0.15695
0.050650001 -0.10367 0.15695
0.1022 -0.053630002 0.15706
0.053619999 -0.10221 0.15706
0.10923 -0.027179999 0.11631
-0.17069 0.03159 0.028650001
-0.099059999 -0.07017 0.1798
-0.17071 -0.0042400002 0.063349999
-0.1649 0.066519998 0.1336
-0.16444001 0.066820003 0.17840999
-0.12738 0.072999999 0.13463999
-0.024390001 0.1107 0.12808999
-0.16419999 -0.066090003 0.085620001
0.01462 0.11544 0.17102
-0.12281 0.072999999 0.19343001
-0.16419999 -0.066590004 0.13264
-0.067489997 -0.084279999 0.050379999
-0.17065001 -0.00648 0.063479997
-0.04504 0.10318 0.11701
0.035089999 -0.10743 0.12265
0.038550001 0.10356 0.01646
-0.16519 -0.066519998 0.085450001
-0.065710001 0.085660003 0.050190002
-0.16419999 -0.01973 0.02059
-0.16469 0.065480001 0.041219998
-0.16566999 0.06628 0.085490003
-0.037330002 -0.10858 0.14858
-0.03878 0.10391 0.022360001
-0.13793001 -0.061310001 0.20883
-0.16419999 0.066749997 0.17878
-0.16419999 0.066289999 0.13473
-0.03596 -0.10581 0.10465
-0.01303 0.11263 0.12794
0.062199999 0.096600004 0.14952999
-0.1707 0.059300002 0.062139999
-0.1646 0.06222 0.05799
-0.15366 0.072999999 0.16113
-0.099770002 -0.069710001 0.079020001
-0.13278 -0.068549998 0.036400001
-0.10389 -0.069559999 0.035470001
-0.16419999 -0.066150002 0.13522001
-0.16419999 -0.066710003 0.17895
-0.16568001 -0.066339999 0.03923
-0.1206 -0.049199998 0.0098000001
-0.14935 -0.0164 0.0099499999
-0.1206 0.04919 0.0098000001
-0.14935 0.0164 0.0099499999
-0.16419999 0.064659998 0.086759999
0.090559997 -0.058729999 0.050420001
0.0911 0.069980003 0.14992
0.093189999 -0.054499999 0.05043
-0.14025 -0.05429 0.21445
0.071819998 -0.08935 0.14602
0.01443 -0.10937 0.084569998
-0.085330002 -0.072379999 0.076159999
-0.16444001 0.066359997 0.13435
-0.1707 0.05728 0.062509999
-0.075510003 -0.077229999 0.050069999
-0.16419999 -0.01832 0.073830001
-0.1816 0.044860002 0.061530001
-0.1816 0.0080599999 0.061530001
0.01518 0.11231 0.12745
0.11231 0.01518 0.12745
0.04685 -0.099469997 0.079279996
-0.073689997 -0.087899998 0.14689
-0.16516 0.066600002 0.13270999
0.07237 0.089270003 0.14992
-0.10534 0.02217 0.00764
0.043639999 -0.10096 0.079369999
-0.14042 -0.05576 0.21343
-0.11236 0.06927 0.053860001
-0.14659999 0.068070002 0.02832
-0.13975 0.06831 0.086139999
-0.1707 0.055750001 0.063000001
-0.14945 -0.048409998 0.01079
0.067929998 -0.083740003 0.048519999
-0.12902001 0.068680003 0.19825999
-0.041839998 0.10129 0.07378
-0.1706 -0.0067099999 0.064470001
0.10924 0.033489998 0.14047
0.080629997 -0.08207 0.15169001
0.09042 -0.074150003 0.17876001
0.064910002 0.094829999 0.15047
0.07 0.091130003 0.15042999
-0.10432 -0.029039999 0.0070099998
0.078960001 0.073380001 0.049169999
-0.15925001 -0.031970002 0.21529
-0.10894 0.069389999 0.082769997
-0.14318 0.068190001 0.057229999
-0.13631999 0.068429999 0.11505
-0.090719998 -0.072690003 0.15099999
-0.14935 0.048250001 0.01078
-0.16419999 -0.06628 0.13446
0.06476 -0.08969 0.088799998
0.073420003 -0.079060003 0.04958
-0.16566999 0.065810002 0.040059999
-0.12183 -0.0164 0.00899
-0.12183 0.0164 0.00899
-0.17065001 0.05951 0.063019998
-0.16419999 0.065739997 0.082160003
-0.16419999 0.065300003 0.040109999
-0.125 0.07925 0.13500001
-0.097000003 0.07925 0.163
-0.125 0.07925 0.191
-0.153 0.07925 0.163
0.11531 0.01494 0.16966
0.050069999 -0.097939998 0.079740003
-0.1707 0.03076 0.098229997
-0.16419999 0.063940004 0.085869998
0.088059999 -0.06233 0.049559999
-0.15908 0.032389998 0.21529
-0.12579 0.085500002 0.13500001
0.10475 0.025739999 0.048950002
-0.087389998 -0.070880003 0.048930001
-0.17399999 0.0018 0.061560001
-0.17665 0.00017 0.061469998
-0.17414001 0.051109999 0.061489999
-0.085689999 0.073509999 0.10535
-0.16419999 0.0638 0.085699998
0.075970002 -0.076650001 0.050009999
-0.10563 -0.045620002 0.0090199998
-0.04166 0.10451 0.11557
-0.12439 0.072999999 0.191
0.065339997 -0.095640004 0.16319001
0.093840003 -0.06391 0.13032
0.076439999 0.076099999 0.049010001
0.071099997 -0.081119999 0.049120001
0.082500003 0.069519997 0.049369998
-0.077950001 0.080069996 0.1047
-0.17152999 0.051199999 0.061530001
-0.077600002 -0.075460002 0.04874
0.10764 -0.03483 0.12435
-0.083099999 -0.07423 0.089369997
0.10659 0.042350002 0.14692999
-0.041209999 -0.10588 0.13117
-0.083339997 0.072180003 0.048470002
-0.036249999 0.10353 0.075259998
-0.17120001 0.051339999 0.0614
0.05875 -0.097929999 0.13981999
-0.17130999 0.0017 0.06137
-0.070110001 -0.09065 0.14567
-0.01288 -0.11253 0.12628999
0.093139999 -0.068060003 0.15629999
-0.10621 -0.045290001 0.0090699997
0.095090002 0.056159999 0.085790001
-0.048069999 0.10197 0.1188
-0.03232 -0.10269 0.046119999
-0.0394 0.10233 0.074960001
0.069329999 0.08585 0.08478
-0.14406 0.066440001 0.01181
-0.14406 0.067259997 0.01251
-0.17061 0.059730001 0.063900001
-0.1707 -0.00081 0.06103
-0.085170001 0.071539998 0.048689999
0.0093 0.10662 0.037009999
-0.080150001 -0.073830001 0.048980001
-0.11055 0.069329999 0.03461
0.10464 0.047019999 0.14753
-0.097000003 0.072999999 0.163
-0.153 0.072999999 0.163
-0.125 0.072999999 0.13500001
-0.097000003 0.085500002 0.163
-0.125 0.085500002 0.191
-0.153 0.085500002 0.163
-0.079609998 -0.086089998 0.18455
-0.066540003 -0.088160001 0.086199999
-0.17086001 0.05184 0.061900001
-0.16469 0.065920003 0.083269998
-0.17095999 0.00121 0.061859999
0.037470002 0.10801 0.14208999
0.076090001 -0.080480002 0.09031
-0.088699996 -0.070540003 0.049699999
0.10288 0.050810002 0.14753
0.1021 -0.069859996 0.00404
-0.087559998 0.070799999 0.048129998
0.026380001 -0.10964 0.11903
-0.16419999 0.060540002 0.084540002
-0.084720001 -0.081139997 0.18455
-0.00722 -0.10605 0.02734
-0.00722 0.10605 0.02734
-0.16419999 0.066459998 0.18113001
-0.16419999 0.065420002 0.14176001
-0.095030002 0.070100002 0.10843
0.10234 -0.070100002 0.00813
0.10371 -0.0309 0.0080399998
0.10334 0.03076 0.0020000001
0.10334 -0.03076 0.0020000001
0.10358 0.03077 0.0060000001
0.10197 0.069729999 0.0020000001
0.10197 -0.069729999 0.0020000001
0.10358 -0.03077 0.0060000001
-0.1707 0.00072000001 0.061519999
-0.1707 0.052200001 0.061519999
-0.01314 -0.10551 0.02734
-0.021500001 0.10661 0.062369999
-0.16401 0.067369998 0.15062
-0.164 0.067380004 0.11183
-0.16399001 0.067390002 0.034249999
-0.16399001 0.067390002 0.073040001
0.01281 0.10617 0.036189999
-0.02001 0.1118 0.13093001
-0.093429998 0.069930002 0.04738
-0.065059997 -0.085879996 0.04727
-0.096950002 0.069859996 0.10788
0.015830001 0.10579 0.036150001
-0.016349999 0.11237 0.13078
-0.081859998 -0.075070001 0.088200003
-0.071120001 -0.093359999 0.18493
0.016899999 -0.10618 0.043979999
-0.063189998 -0.092569999 0.10949
0.01044 0.11613 0.17408
-0.068980001 -0.094949998 0.18493
-0.01558 -0.10519 0.027109999
-0.16419999 0.064669997 0.084109999
0.10548 -0.029999999 0.074969999
0.10113 0.039179999 0.058680002
0.02981 0.10642 0.08704
-0.089929998 0.070320003 0.048610002
-0.016340001 0.11507 0.16878
-0.01298 0.1155 0.16878
-0.073019996 -0.081720002 0.073619999
-0.16419999 -0.05965 0.035239998
-0.02 0.1145 0.16892999
-0.068669997 0.091140002 0.13895001
0.094470002 -0.051899999 0.04764
-0.1043 0.01983 0.0059699998
-0.092299998 0.070029996 0.048099998
0.065070003 0.097690001 0.18539999
0.06605 0.09386 0.14813
-0.067189999 -0.092990004 0.14719
-0.075209998 0.080279998 0.079910003
-0.032030001 -0.11235 0.17721
-0.067110002 0.09234 0.13895001
-0.10325 -0.069619998 0.18345
-0.099200003 -0.06983 0.14634
-0.15462001 -0.03644 0.21534
-0.089919999 -0.073339999 0.15362
-0.095360003 -0.070689999 0.15308
0.09973 0.042849999 0.05872
-0.15497001 0.036290001 0.21533
0.092739999 0.054809999 0.047010001
-0.06803 0.084129997 0.054090001
0.071249999 -0.093280002 0.18584
-0.03266 0.11276 0.18581
0.046530001 -0.1059 0.16102999
0.1059 -0.04654 0.16102999
0.06005 0.090530001 0.059980001
0.0081700003 0.11369 0.13664
0.11369 0.0081700003 0.13664
0.11119 0.0068799998 0.099880002
0.0068799998 0.11119 0.099880002
0.0055900002 0.10869 0.063129999
0.10869 0.0055900002 0.063129999
0.10619 0.0043000001 0.026380001
0.0043000001 0.10619 0.026380001
0.11373 -0.00758 0.13664
0.00758 -0.11374 0.13664
0.0064599998 -0.11122 0.099880002
0.11122 -0.0064599998 0.099880002
-0.0074999998 -0.11375 0.13664
-0.0074999998 0.11374 0.13664
-0.0064099999 0.11122 0.099880002
-0.0064099999 -0.11123 0.099880002
0.10871 -0.0053400001 0.063129999
0.00422 -0.1062 0.026380001
0.0053400001 -0.10871 0.063129999
0.10619 -0.00422 0.026380001
-0.0053099999 -0.10871 0.063129999
-0.0053099999 0.10871 0.063129999
-0.0042099999 0.1062 0.026380001
-0.0042099999 -0.1062 0.026380001
-0.1816 0.026459999 0.083130002
-0.1816 0.026459999 0.039930001
-0.1707 0.033259999 0.098229997
-0.16419999 0.058880001 0.13064
-0.070309997 0.082280003 0.054170001
-0.098520003 -0.069750004 0.046739999
-0.087679997 0.077629998 0.18121
-0.16459 0.062249999 0.061549999
-0.16419999 0.058850002 0.13067
-0.14576 -0.067809999 0.01349
-0.1707 0.033330001 0.098229997
-0.14569999 0.068099998 0.0187
-0.10964 0.069370002 0.024979999
-0.09465 -0.069940001 0.0832
-0.092110001 -0.07 0.046689998
0.04115 0.10387 0.10434
-0.062710002 -0.097170003 0.16027001
0.036959998 0.10125 0.048239999
-0.05525 0.09804 0.11593
-0.11106 0.069310002 0.11296
0.099189997 -0.047869999 0.081579998
-0.092560001 -0.069969997 0.046530001
-0.096000001 -0.069849998 0.082699999
-0.079769999 -0.076839998 0.08952
-0.02798 -0.10925 0.11922
-0.074689999 -0.090609998 0.18616
-0.05164 0.099959999 0.11635
0.10869 -0.030230001 0.12129
-0.16419999 -0.01336 0.11829
-0.095550001 -0.069880001 0.082869999
0.096790001 0.053440001 0.088349998
-0.029859999 -0.10324 0.043790001
-0.031950001 0.10415 0.064510003
-0.10149 -0.069650002 0.04685
-0.098970003 -0.069739997 0.08281
-0.089170001 -0.070430003 0.047820002
-0.093670003 -0.070079997 0.083580002
-0.057580002 -0.090989999 0.04651
0.1035 -0.056279998 0.018750001
-0.05184 -0.095799997 0.064560004
-0.0096399998 -0.10601 0.028820001
-0.086970001 0.072839998 0.10792
-0.076750003 -0.088909999 0.18616
-0.080679998 0.077119999 0.10218
0.11506 -0.02359 0.18633001
0.02359 -0.11506 0.18633001
0.10821 0.03734 0.14413001
0.10356 -0.056329999 0.020059999
0.116 0.01077 0.17272
-0.077320002 -0.079209998 0.089400001
-0.078309998 -0.081710003 0.12493
-0.11521 -0.039579999 0.21675
-0.046720002 -0.09849 0.06549
-0.090149999 -0.070289999 0.04744
-0.01047 0.10595 0.028960001
0.1145 -0.0262 0.18633001
0.0262 -0.11451 0.18633001
-0.01455 -0.10792 0.063859999
-0.085759997 -0.072039999 0.072159998
0.065459996 0.088600002 0.082209997
0.073729999 0.078380004 0.045880001
0.07034 -0.087010004 0.10673
0.0977 -0.045189999 0.045850001
0.095820002 -0.04902 0.046190001
-0.021570001 -0.1058 0.050489999
-0.087459996 -0.078429997 0.18651
0.086740002 0.076090001 0.15655001
-0.16410001 0.065679997 0.18742999
-0.048840001 -0.097390004 0.065059997
0.082280003 0.082209997 0.16985001
-0.16419999 -0.058260001 0.03641
0.017650001 -0.11501 0.17033
0.115 -0.017650001 0.17033
-0.038520001 0.10537 0.11184
-0.16419999 0.065710001 0.13942
-0.051970001 -0.10037 0.12313
-0.10467 -0.032880001 0.0078099999
0.095959999 -0.054310001 0.083559997
-0.089149997 -0.071039997 0.080090001
-0.085900001 -0.07119 0.045620002
-0.16419999 0.058910001 0.13178
-0.08794 0.077459998 0.18012001
-0.11593 -0.040350001 0.21658
-0.16419999 -0.05401 0.070289999
-0.12931 -0.03932 0.21614
0.067079999 0.084320001 0.047619998
-0.13500001 0.085500002 0.177
-0.139 0.085500002 0.153
-0.115 0.085500002 0.149
-0.111 0.085500002 0.153
-0.08828 0.077299997 0.18018
-0.08495 0.077420004 0.14594001
-0.16426 0.060320001 0.087119997
-0.08461 0.077579997 0.14588
0.10557 -0.02496 0.058090001
0.039099999 -0.10094 0.054839998
0.086819999 0.063479997 0.04538
0.05108 -0.10041 0.1176
-0.060150001 -0.10093 0.18711001
-0.067309998 0.096309997 0.1873
-0.099129997 -0.070260003 0.18527
-0.095980003 -0.070469998 0.1514
-0.109 0.085500002 0.155
-0.133 0.085500002 0.17900001
0.10467 0.027860001 0.02146
-0.092 0.072999999 0.1802
-0.092 0.072999999 0.14633
0.047189999 -0.096430004 0.042270001
-0.083410002 0.073200002 0.073310003
-0.089819998 0.077249996 0.17904
-0.08546 0.077399999 0.14556
-0.041760001 -0.10985 0.18731
-0.038419999 -0.11107 0.18731
0.097840004 -0.050749999 0.08303
-0.085560001 -0.076970004 0.15227
-0.072860003 -0.085089996 0.10903
-0.064379998 0.098339997 0.1873
0.084090002 0.067139998 0.04552
-0.01546 -0.11246 0.12992001
-0.16419999 0.0173 0.11161
-0.068970002 -0.086570002 0.089309998
0.019610001 0.10491 0.03334
0.11203 0.035459999 0.18769
0.035459999 0.11203 0.18769
-0.0175 0.10719 0.059769999
-0.16419999 -0.0079699997 0.2008
-0.092 0.074040003 0.14599
-0.092 0.076130003 0.17918
0.11063 -0.02282 0.12235
0.022810001 -0.11064 0.12235
-0.16419999 -0.025280001 0.070309997
-0.14722 -0.068049997 0.060040001
-0.14722 -0.068049997 0.15276
-0.14722 -0.068049997 0.1064
-0.11421 -0.06921 0.10266
0.048020002 0.095940001 0.042240001
-0.023949999 -0.10534 0.0517
0.056310002 0.099239998 0.13851
0.11377 0.02947 0.18769
0.02947 0.11377 0.18769
0.1029 -0.057629999 0.020749999
0.069849998 0.081950001 0.046890002
0.10328 -0.057599999 0.02039
-0.1816 0.028489999 0.037179999
0.065130003 -0.092660002 0.12624
-0.1816 0.024420001 0.085869998
-0.03537 0.10656 0.11215
-0.089309998 0.077260002 0.17941999
0.10391 -0.034419999 0.072319999
0.075139999 -0.10177 0.0080000004
-0.075149998 0.10176 0.0080000004
0.075180002 0.10176 0.0080000004
-0.075180002 -0.10177 0.0080000004
-0.10199 0.069629997 0.040989999
-0.01359 -0.11504 0.16305
-0.17038 -0.0073899999 0.080820002
0.057190001 -0.095880002 0.10316
0.033709999 -0.11067 0.16113999
0.11067 -0.033709999 0.16113999
-0.0098400004 0.11599 0.17135
0.07841 -0.07779 0.08664
-0.036839999 0.11134 0.18388
-0.10808 -0.0164 0.0085000005
-0.10684 -0.049199998 0.0093200002
-0.13559 -0.0164 0.0094699999
-0.10684 0.04919 0.0093200002
-0.10808 0.0164 0.0085000005
-0.13559 0.0164 0.0094699999
-0.092 0.07508 0.17952
0.087849997 0.074610002 0.15519001
0.11311 0.032060001 0.18769
0.032060001 0.11311 0.18769
0.054889999 -0.092349999 0.043249998
0.063929997 0.09866 0.18773
-0.081139997 0.085369997 0.19111
-0.032790001 0.10729 0.11156
-0.16438 0.061020002 0.034460001
0.041250002 0.10642 0.13877
0.11009 0.028899999 0.13511001
-0.092 0.077169999 0.14688
-0.092 0.077169999 0.17948
0.088169999 -0.072760001 0.14132001
-0.16419999 0.048870001 0.01169
-0.16419999 0.01629 0.01091
-0.040580001 0.11003 0.18408
-0.032960001 -0.10952 0.14256001
0.1013 0.04834 0.1116
-0.16418999 -0.01623 0.01088
-0.16417 -0.048689999 0.0116
-0.093209997 -0.070200004 0.08546
0.031849999 -0.10404 0.06256
-0.16419999 0.01619 0.01108
-0.16419999 0.04857 0.01219
0.074029997 -0.090980001 0.1838
0.037719999 -0.10933 0.16078
0.10932 -0.037719999 0.16078
-0.10459 0.02746 0.0073600002
-0.1066 -0.049419999 0.0092900004
-0.10737 -0.01708 0.0084199999
-0.16415 0.04899 0.0116
-0.16407 0.016659999 0.01064
0.090839997 -0.06174 0.077229999
0.088869996 -0.060630001 0.044989999
0.076870002 0.10219 0.016000001
-0.16395 -0.047899999 0.01132
-0.16401 -0.015629999 0.01054
0.057289999 -0.090920001 0.043249998
-0.033070002 -0.10718 0.11059
0.043900002 -0.10928 0.19248
0.044890001 0.097539999 0.042040002
-0.16438 0.061000001 0.03427
-0.16419999 0.048670001 0.01202
-0.075130001 0.077129997 0.045279998
0.06047 -0.096529998 0.13552999
0.062930003 -0.097630002 0.16757999
-0.082050003 -0.077380002 0.11956
-0.078560002 -0.077770002 0.087609999
-0.16412 0.01654 0.01073
0.084540002 0.071050003 0.085830003
-0.092 0.076130003 0.14658
-0.12876 0.04631 0.21597999
-0.16419999 0.0241 0.18606
0.10161 -0.048280001 0.11558
-0.16377001 -0.016009999 0.01045
-0.16387001 -0.048020002 0.01129
-0.13502 -0.048799999 0.0103
-0.16413 -0.016009999 0.01082
-0.16399001 -0.048020002 0.01141
-0.089819998 0.077249996 0.14644
0.079549998 0.08461 0.16804001
-0.04843 0.095729999 0.041049998
0.091250002 0.060679998 0.073660001
0.10523 0.021400001 0.04346
-0.16419999 0.033179998 0.20039
0.05105 -0.094520003 0.043019999
0.01394 -0.10681 0.047479998
0.01023 -0.10508 0.01591
0.02564 0.10723 0.083740003
-0.1076 -0.01685 0.0084499996
-0.16419999 -0.063170001 0.12907
0.10401 0.02699 0.01067
0.10326 0.058389999 0.01602
-0.16372 0.04778 0.01127
-0.16372 0.015930001 0.01044
-0.13496999 0.048719998 0.01029
-0.1652 -0.01589 0.01099
-0.16719 -0.047680002 0.01194
0.086630002 -0.071099997 0.10922
0.097319998 0.062830001 0.16314
0.095870003 0.06098 0.13141
-0.16384999 -0.01588 0.01048
0.10694 0.032159999 0.10344
-0.16408999 -0.01588 0.01073
0.1077 0.024259999 0.085419998
0.076520003 -0.1022 0.016000001
0.08501 -0.081239998 0.18844999
0.10397 0.02699 0.0099999998
0.10313 0.058400001 0.014
-0.16419999 -0.02125 0.12009
0.10313 -0.058320001 0.014
0.10397 -0.026969999 0.0099999998
-0.16395999 0.0163 0.01054
-0.1638 0.047899999 0.0113
-0.076530002 -0.10221 0.016000001
-0.16405 -0.048250001 0.01148
-0.17419 0.02764 0.029379999
0.10317 0.058400001 0.01467
-0.11807 0.03906 0.21653999
-0.063139997 0.088059999 0.05703
-0.16053 0.06758 0.1237
0.10313 0.04425 0.11292
-0.17394 0.02729 0.093680002
0.059209999 0.095370002 0.11203
-0.16618 -0.048020002 0.01183
0.097860001 0.046300001 0.055410001
-0.16388001 0.016179999 0.01051
-0.17008001 0.060770001 0.081359997
-0.1697 0.061000001 0.050030001
0.038419999 0.1051 0.10696
0.10859 -0.021740001 0.090539999
0.028240001 0.10332 0.0394
-0.16424 0.04208 0.10475
-0.16448 0.04208 0.10431
0.083169997 -0.083169997 0.18844999
-0.17665 0.02764 0.02946
-0.093979999 -0.07045 0.11255
-0.04995 -0.10328 0.14737
0.078749999 -0.083310001 0.146
0.07852 -0.086460002 0.17697001
-0.076219998 0.10221 0.016000001
-0.15894 0.067639999 0.15459999
-0.16213 0.06752 0.092809997
-0.16213 0.06752 0.18553001
-0.02839 0.10534 0.067230001
0.10359 0.05883 0.02141
0.105 0.0283 0.02685
-0.16396999 0.067380004 0.15449999
-0.16389 0.067419998 0.12345
-0.16395999 0.067400001 0.076909997
-0.14865001 -0.065540001 0.01147
0.0273 -0.10356 0.01001
-0.11065 0.069329999 0.06831
-0.14146 0.06825 0.071690001
-0.14489 0.068130001 0.042780001
-0.13802999 0.06837 0.10059
-0.16966 -0.0081000002 0.079839997
0.046689998 0.10514 0.15204
-0.16387001 0.067419998 0.1855
-0.16419999 0.063069999 0.13087
-0.16419999 0.059760001 0.16165
-0.064390004 0.089790002 0.087329999
-0.16293 0.067500003 0.030999999
-0.16133 0.067550004 0.061900001
-0.15814 0.067670003 0.12369
-0.15974 0.067610003 0.09279
-0.081880003 0.082180001 0.16569
0.081459999 -0.074720003 0.087389998
-0.17095 0.027240001 0.094190001
-0.1767 0.02798 0.031950001
-0.17118999 0.027249999 0.093769997
-0.16392 0.048269998 0.0114
-0.16412 0.067209996 0.12371
-0.16405 0.067309998 0.15458
-0.16403 0.067330003 0.077
-0.17120001 0.027480001 0.02935
-0.14854001 -0.065090001 0.01134
-0.02746 -0.10354 0.0096899997
-0.16419999 0.01541 0.01108
-0.16419999 0.04623 0.01219
-0.098509997 -0.070479997 0.18695
-0.16411 0.067170002 0.18540999
-0.17852999 -0.03946 0.15106
-0.17852999 -0.03946 0.13086
-0.16936 -0.0082999999 0.079949997
-0.16957 -0.0081799999 0.049210001
-0.086819999 -0.071690001 0.074419998
-0.085129999 -0.07141 0.043729998
-0.16419999 -0.04606 0.01223
-0.16419999 -0.01535 0.01109
-0.17665 0.027419999 0.09358
0.068899997 -0.095299996 0.18871
0.067319997 -0.093829997 0.15808
0.050480001 0.10339 0.15204
-0.16419999 0.046300001 0.20005
0.10216 -0.03954 0.073569998
0.098559998 -0.042830002 0.043370001
-0.16987 -0.0079800002 0.049090002
-0.1767 0.02775 0.0911
-0.16419999 0.00403 0.2008
0.10434 -0.02493 0.01475
0.10502 0.0096100001 0.01478
-0.01376 0.10783 0.06154
-0.091789998 0.070380002 0.082769997
-0.094360001 0.070249997 0.113
-0.18895 -0.03946 0.14095999
0.04984 0.099260002 0.095100001
-0.16419999 -0.057750002 0.15968999
-0.091459997 0.07045 0.082780004
-0.093379997 0.070459999 0.11301
0.01615 0.10959 0.091229998
-0.093709998 0.070390001 0.11301
-0.09843 0.069760002 0.11191
-0.096309997 0.06983 0.081720002
-0.12369 0.068870001 0.114
-0.05156 0.094169997 0.04177
-0.09127 -0.074040003 0.18037
-0.088579997 -0.074079998 0.15025
0.097999997 -0.06208 0.16571
-0.01423 0.10987 0.09121
-0.16419999 0.01505 0.01138
-0.16419999 0.045139998 0.0131
-0.056400001 -0.10055 0.15523
0.07395 -0.088200003 0.15283
0.090620004 0.05765 0.043099999
0.05618 -0.099830002 0.14524999
0.05201 -0.099720001 0.11548
0.025590001 -0.11231 0.15366
0.11231 -0.025590001 0.15366
-0.082819998 -0.079680003 0.15030999
-0.15547 -0.067759998 0.095749997
-0.15547 -0.067759998 0.18846001
-0.13897 -0.068340003 0.16340999
-0.10974 -0.069360003 0.16392
-0.15547 -0.067759998 0.049389999
-0.15547 -0.067759998 0.14211001
-0.13897 -0.068340003 0.11706
-0.13897 -0.068340003 0.070699997
-0.10596 -0.069490001 0.11331
-0.12247 -0.068920001 0.13835999
-0.12247 -0.068920001 0.092009999
-0.16419999 -0.01495 0.01158
-0.16419999 -0.044840001 0.0137
-0.056620002 -0.09606 0.10103
-0.16419999 -0.04721 0.074670002
0.080710001 -0.07559 0.08783
0.079530001 -0.073789999 0.057969999
0.065300003 0.09155 0.11459
0.099639997 -0.059429999 0.16580001
0.01902 -0.10822 0.077930003
-0.10562 0.0438 0.0089199999
-0.10704 0.01399 0.0082999999
0.07705 0.080009997 0.095380001
0.10594 0.018270001 0.043930002
-0.16896001 0.061250001 0.078989998
-0.16933 0.061159998 0.049240001
-0.05689 0.099749997 0.1489
-0.1652 -0.046599999 0.01213
-0.025049999 0.10619 0.066799998
-0.093149997 0.070050001 0.073959999
-0.090620004 0.070139997 0.044369999
0.09251 0.067390002 0.14328
0.093759999 0.069200002 0.17287999
-0.069899999 0.085579999 0.087059997
-0.092079997 -0.071539998 0.13853
-0.028580001 -0.11295 0.17312001
-0.054450002 -0.10381 0.18426
-0.0973 -0.07006 0.14259
0.040539999 -0.10273 0.086269997
-0.077869996 0.088179998 0.18946999
0.086709999 -0.074309997 0.13975
-0.16913 -0.0083600003 0.080540001
-0.16889 -0.0083699999 0.050960001
-0.16458 0.062270001 0.065109998
-0.081040002 0.07649 0.098949999
0.056090001 0.096600004 0.019780001
-0.16419999 -0.024970001 0.033380002
-0.1816 0.026869999 0.034430001
-0.16419999 0.045469999 0.11089
-0.16419999 0.016170001 0.10759
-0.16419999 0.045499999 0.0128
0.10646 0.015 0.044130001
-0.083899997 -0.073469996 0.083379999
-0.10586 0.04403 0.0089400001
-0.10775 0.01468 0.0083799995
0.10573 -0.019330001 0.043310001
-0.16419999 0.055599999 0.16256
-0.067620002 0.087420002 0.086970001
-0.16458 0.062270001 0.065200001
-0.16419999 -0.031970002 0.074359998
-0.17915 0.027170001 0.034430001
-0.16419999 0.047010001 0.01219
-0.11989 -0.068999998 0.20175
-0.1161 -0.069140002 0.15114
-0.14911 -0.067979999 0.20124
-0.13260999 -0.068559997 0.17619
0.08867 0.060679998 0.043159999
-0.16419999 -0.04524 0.01321
-0.10323 -0.051660001 0.00716
-0.10414 -0.022469999 0.0062799999
-0.1707 0.0076199998 0.098439999
-0.1707 0.036740001 0.10072
-0.16419999 -0.043639999 0.21168
-0.16419999 -0.01455 0.21421
0.033890001 0.1096 0.14711
-0.080799997 -0.078819998 0.12135
0.067429997 0.092550002 0.14404
0.06921 0.093769997 0.17314
-0.16457 0.062279999 0.065300003
-0.027659999 0.11435 0.18973
0.10623 -0.016179999 0.04377
0.080279998 -0.072930001 0.057530001
-0.16201 0.067529999 0.03001
-0.12777001 0.068729997 0.055550002
-0.15858001 0.067649998 0.05892
-0.15173 0.067890003 0.11673
-0.12434 0.068850003 0.084449999
-0.15515 0.067769997 0.08783
0.048220001 -0.10758 0.19374999
-0.14954001 -0.067759998 0.01396
-0.12048 -0.068910003 0.01378
-0.02478 -0.11388 0.17326
-0.16432001 0.0601 0.089709997
-0.10647 0.072439998 0.13059001
-0.1354 0.071330003 0.13298
-0.17852999 -0.050760001 0.14095999
-0.02613 -0.10942 0.11555
-0.024150001 -0.11194 0.1444
-0.10292 -0.05139 0.0059500001
-0.10403 -0.02238 0.0058800001
-0.10607 0.01522 0.00777
-0.1053 0.044210002 0.0087400004
-0.1497 0.065269999 0.01149
-0.12071 0.065480001 0.01031
-0.16419999 0.01487 0.11161
-0.10751 0.01445 0.0083499998
0.036359999 -0.10429 0.086130001
-0.10644 0.072999999 0.13062
-0.13530999 0.072999999 0.13305999
-0.16745 -0.0084300004 0.0506
0.10136 -0.056359999 0.16523001
-0.16441 0.062789999 0.050560001
-0.16745 0.06134 0.079439998
-0.13534001 0.072439998 0.13304
-0.16536 -0.0087400004 0.050560001
0.094679996 -0.056910001 0.086350001
-0.16428 0.063019998 0.079489999
-0.16475999 -0.0091599999 0.050560001
-0.16484 0.06199 0.050560001
-0.16497 -0.0089400001 0.079489999
-0.16466001 -0.0092399996 0.079489999
-0.16446 -0.0095699998 0.079489999
-0.16558 -0.0086200004 0.079489999
-0.16595 -0.0085199997 0.079489999
-0.16446 -0.0095699998 0.050560001
-0.16595 -0.0085199997 0.050560001
-0.16595 0.061439998 0.079489999
-0.16558 0.061530001 0.079489999
-0.16558 0.061530001 0.050560001
-0.16595 0.061439998 0.050560001
-0.16492 0.061889999 0.079489999
-0.16524 0.06168 0.079489999
-0.16424 -0.01029 0.079489999
-0.16432001 -0.0099200001 0.079489999
-0.16524 0.06168 0.050560001
-0.16432001 -0.0099200001 0.050560001
-0.16424 -0.01029 0.050560001
-0.16529 -0.0087299999 0.079489999
-0.16507 -0.0088600004 0.050560001
-0.16481 -0.0090399999 0.079489999
-0.16491 -0.0089600002 0.050560001
-0.16472 0.06205 0.079489999
-0.16464999 0.062150002 0.050560001
-0.16419999 -0.01047 0.079489999
-0.16436 -0.00973 0.079489999
-0.16613001 -0.0084699998 0.079489999
-0.16539 0.061579999 0.079489999
-0.16613001 0.061390001 0.079489999
-0.16539 0.061579999 0.050560001
-0.16613001 0.061390001 0.050560001
-0.16419999 -0.01047 0.050560001
-0.16436 -0.00973 0.050560001
-0.16613001 -0.0084699998 0.050560001
-0.16678999 -0.0084499996 0.079510003
-0.16811 -0.0083999997 0.050620001
-0.14928 -0.067979999 0.01509
-0.12039 -0.06899 0.01416
-0.11627 -0.069130003 0.057709999
-0.16811 0.061319999 0.07942
-0.16678999 0.06137 0.050530002
-0.089979999 0.071549997 0.11193
-0.087140001 0.07181 0.083159998
-0.12065 -0.065200001 0.01022
-0.1494 -0.03241 0.01037
-0.1495 -0.06442 0.01121
0.032389998 0.10222 0.039900001
-0.023320001 0.11533 0.18973
-0.0263 0.11264 0.16113999
-0.10302 -0.051479999 0.0063499999
-0.01512 -0.11469 0.16094001
-0.01725 -0.11643 0.18967
0.08303 -0.069760002 0.058030002
-0.16877 0.061299998 0.079439998
-0.16877 0.061299998 0.0506
-0.113 0.085500002 0.17900001
-0.12099 0.066650003 0.01056
-0.14979 0.06566 0.01157
-0.16811 0.061319999 0.050579999
-0.16419999 -0.061009999 0.1877
-0.17167 0.026459999 0.02929
-0.1206 0.065119997 0.01022
-0.14935 0.03232 0.01037
-0.14935 0.064180002 0.0112
-0.14937 -0.067900002 0.01471
0.026389999 0.11089 0.13664
0.11089 0.026389999 0.13664
-0.059840001 -0.098580003 0.15613
0.05796 0.10078 0.16931
0.025180001 -0.10747 0.085129999
-0.12089 0.066260003 0.01048
-0.16419999 -0.01422 0.21356
-0.16419999 -0.042649999 0.20973
0.077469997 0.0867 0.16931
0.1027 0.059870001 0.02053
-0.029829999 0.11385 0.18973
-0.02847 0.11214 0.16113999
-0.14940999 0.06797 0.0151
-0.12077 0.068970002 0.01419
0.10311 0.05985 0.020199999
-0.17068 0.01109 0.028589999
-0.17066 0.039730001 0.02801
0.10508 0.039579999 0.11232
-0.08213 0.073870003 0.070739999
-0.14946 0.064539999 0.01129
-0.082620002 0.075230002 0.099270001
-0.11163 -0.069289997 0.18923
-0.14086001 -0.068269998 0.18872
-0.12436 -0.068850003 0.16367
-0.10785 -0.069430001 0.13862
-0.03204 -0.10529 0.080459997
-0.08839 0.07226 0.11147
-0.086609997 0.072039999 0.083010003
0.02122 -0.10491 0.038389999
-0.043949999 -0.10211 0.097000003
-0.17915 0.02675 0.08862
0.062579997 0.093309999 0.11365
0.041299999 0.099239998 0.044100001
-0.16912 -0.0083100004 0.050379999
-0.084540002 0.07773 0.14881
-0.10229 -0.069619998 0.043060001
0.077239998 -0.075999998 0.056779999
-0.1816 0.035659999 0.072329998
-0.1816 0.035659999 0.050730001
-0.1816 0.01726 0.050730001
-0.1816 0.01726 0.072329998
0.069569997 -0.087920003 0.11026
0.067050003 -0.087399997 0.082010001
0.080080003 -0.079109997 0.11664
0.052680001 -0.095990002 0.072849996
-0.16756999 -0.0084199999 0.079850003
-0.081560001 0.072760001 0.042319998
-0.034150001 0.10371 0.068690002
0.043060001 0.10065 0.072109997
-0.038880002 -0.10417 0.096730001
0.095640004 0.050999999 0.056680001
-0.16419999 -0.04298 0.21038
-0.10639 0.01481 0.0079500005
-0.16419999 -0.065350004 0.1868
-0.16419999 -0.062089998 0.15879001
-0.16933 0.06109 0.079779997
-0.083250001 -0.076449998 0.12147
-0.16419999 -0.062639996 0.094240002
-0.16419999 -0.056299999 0.06679
-0.088919997 0.072020002 0.11162
0.10921 -0.043869998 0.19039001
-0.08021 0.075039998 0.071060002
-0.076439999 0.075819999 0.043170001
-0.16419999 -0.0019499999 0.1135
-0.07779 0.07491 0.04307
-0.16474 0.01243 0.10453
-0.11911 -0.066200003 0.0103
-0.16419999 0.043650001 0.10452
-0.16419999 0.01556 0.10547
0.07344 0.085519999 0.11877
-0.08089 0.074579999 0.071010001
-0.078469999 0.074450001 0.043019999
-0.16498999 0.01243 0.10409
0.097290002 -0.066260003 0.19029
0.10693 -0.01033 0.04329
0.059939999 -0.088930003 0.040750001
0.10691 0.01066 0.04329
-0.16896001 0.061250001 0.05015
-0.1816 0.02681 0.08862
-0.078529999 -0.076269999 0.070160002
-0.07564 -0.076420002 0.042380001
0.096309997 -0.05804 0.11461
-0.079709999 0.073739998 0.042750001
-0.13597 0.069629997 0.13232
-0.10822 0.070189998 0.12953
0.047899999 -0.10167 0.11425
-0.10822 0.070040002 0.12941
-0.13598999 0.069200002 0.13196
-0.096440002 -0.07124 0.18564001
-0.13598 0.069339998 0.13208
0.056510001 -0.093819998 0.073069997
-0.12195 0.06893 0.20152999
-0.1498 0.067950003 0.20117
-0.046739999 0.10325 0.020090001
-0.090630002 -0.070720002 0.083389997
-0.16419999 -0.01364 0.21269999
-0.16419999 -0.040910002 0.20714
0.059659999 0.097489998 0.14132001
-0.094590001 -0.072120003 0.18582
-0.043710001 0.097800002 0.03892
-0.01725 -0.11005 0.099430002
0.05212 0.09375 0.040279999
-0.039179999 0.09973 0.03892
0.1159 0.02067 0.19024999
0.02067 0.1159 0.19024999
0.018340001 0.11434 0.16268
0.11434 0.018340001 0.16268
-0.16419999 0.063199997 0.13582
-0.16419999 0.059799999 0.16329999
-0.07784 0.076930001 0.070579998
-0.075649999 0.076459996 0.04301
-0.16419999 -0.0052399999 0.0233
0.089050002 0.068640001 0.11513
-0.16419999 -0.05728 0.16098
-0.17072 0.04025 0.02819
-0.10222 -0.078749999 0.01099
-0.15028 0.065800004 0.20355999
-0.16999 0.040139999 0.10344
-0.17005999 0.01256 0.10339
0.095509999 -0.06882 0.19029
-0.085929997 0.080799997 0.19461
-0.12121 -0.0328 0.0093900003
-0.12121 0.032790001 0.0093900003
-0.14997 0 0.0095499996
-0.12245 0 0.0085800001
-0.10275 0.05223 0.0044900002
-0.10275 -0.052239999 0.0044900002
-0.10352 0.02492 0.0015
-0.10352 -0.02493 0.0015
-0.16419999 0.046599999 0.11491
-0.1767 0.026459999 0.034430001
-0.1767 0.026459999 0.088629998
0.11083 -0.039730001 0.19039001
0.039719999 -0.11084 0.19039001
-0.1595 0.067620002 0.059909999
-0.15264 0.06786 0.11773
-0.15790001 0.067670003 0.090810001
-0.16498999 0.042629998 0.026620001
-0.16484 0.01522 0.025869999
-0.12267 0.066359997 0.20439
-0.11293 0.071099997 0.1313
-0.14013 0.069569997 0.13415
-0.15051 0.064060003 0.20548999
-0.12315 0.064199999 0.20679
-0.10391 0.02493 0.0056699999
-0.056930002 0.10198 0.17713
-0.16419999 0.044259999 0.10664
0.11218 -0.035719998 0.19075
0.03571 -0.11218 0.19075
-0.10366 0.02493 0.0038099999
-0.10366 -0.02493 0.0038099999
-0.12303 0.065070003 0.20581999
-0.15016 0.066670001 0.2026
-0.103 0.05223 0.00636
0.074249998 0.086910002 0.14174999
0.10006 0.05308 0.12643
0.10246 0.052590001 0.15365
-0.10373 0.02493 0.00496
-0.10282 -0.052239999 0.0056500002
-0.10282 0.05223 0.0056500002
-0.10373 -0.024940001 0.00496
-0.10429 0.02493 0.00673
-0.1707 0.029030001 0.094599999
-0.15042 0.062890001 0.20668
-0.07863 0.076300003 0.070739999
-0.15038 0.062309999 0.20727
-0.12311 0.063620001 0.20738
0.077579997 -0.08749 0.17885
0.075929999 -0.08642 0.15162
0.11391 -0.02973 0.19075
0.029720001 -0.11392 0.19075
0.044690002 -0.10316 0.11434
-0.1092 0.06983 0.12939
-0.13631 0.069130003 0.13196
0.02194 0.11016 0.11291
0.073880002 -0.099469997 0.016000001
0.02823 -0.10526 0.065300003
0.02825 -0.10872 0.1129
0.06408 -0.08608 0.040879998
-0.10919 0.069669999 0.12915
-0.1363 0.06865 0.13124
-0.17001 0.04073 0.02668
-0.16966 0.01353 0.02644
-0.068810001 -0.082350001 0.041409999
-0.1363 0.068810001 0.13147999
-0.16419999 -0.04149 0.208
-0.16419999 -0.01373 0.15967999
-0.08997 -0.075390004 0.18221
0.10256 -0.031909999 0.042520002
0.020989999 0.10679 0.063100003
0.04747 0.1029 0.018650001
-0.12347 -0.066629998 0.20407
-0.15047 -0.064989999 0.20446
-0.17054 -0.0071899998 0.056740001
-0.17065001 -0.0070199999 0.083779998
-0.15035 -0.066639997 0.20263
-0.097450003 -0.069859996 0.11429
-0.021709999 0.11383 0.16364001
-0.02179 0.11573 0.19057
-0.11969 -0.065870002 0.01035
-0.13897 -0.068340003 0.04752
-0.15547 -0.067759998 0.026210001
-0.15547 -0.067759998 0.11893
-0.15547 -0.067759998 0.072570004
-0.13897 -0.068340003 0.093879998
-0.12247 -0.068920001 0.068829998
-0.10596 -0.069490001 0.09014
-0.12247 -0.068920001 0.11519
-0.12659 -0.068769999 0.025280001
-0.11008 -0.069349997 0.04659
-0.15547 -0.067759998 0.16528
-0.13897 -0.068340003 0.14023
0.026319999 -0.10386 0.03853
-0.16419999 -0.03359 0.19802
-0.087590002 -0.07147 0.076310001
-0.15028 -0.067469999 0.20171
-0.1234 -0.067460001 0.20316
-0.095749997 0.072999999 0.1696
-0.093249999 0.072999999 0.1428
0.01505 -0.11507 0.16625001
0.11507 -0.01505 0.16625001
-0.10327 0.052019998 0.00728
-0.14658 -0.06605 0.01165
-0.11561 -0.035110001 0.21728
-0.15053 -0.053640001 0.21503
-0.12377 -0.0557 0.21591
-0.16436 0.060040001 0.090839997
0.048610002 0.10208 0.12345
0.02538 0.11498 0.19076
0.11498 0.02538 0.19076
-0.04549 -0.10862 0.19081999
0.032370001 -0.10757 0.11346
-0.072870001 -0.078869998 0.041590001
-0.16419999 -0.0072300001 0.1529
0.11554 0.022770001 0.19076
0.022770001 0.11554 0.19076
0.02462 0.11326 0.16421001
0.11326 0.02462 0.16421001
0.037560001 -0.1059 0.11363
0.10274 0.062180001 0.0099999998
-0.03114 -0.10793 0.11384
-0.027489999 0.10401 0.01761
-0.075839996 0.08275 0.11177
-0.17045 0.060279999 0.057080001
-0.17033 0.060529999 0.08371
0.032249998 0.10807 0.11928
0.11325 -0.03232 0.19075
0.032310002 -0.11326 0.19075
0.1147 0.02668 0.19076
0.02668 0.1147 0.19076
0.02593 0.11298 0.16421001
0.11298 0.02593 0.16421001
-0.044179998 -0.10717 0.16461
-0.10887 0.069899999 0.1294
-0.16419999 0.054060001 0.16134
-0.16419999 0.038550001 0.0207
-0.16419999 0.01285 0.01391
0.086340003 -0.065580003 0.05714
-0.027489999 -0.10378 0.01369
-0.083580002 0.083290003 0.19415
-0.072520003 0.079740003 0.048590001
0.041730002 -0.10434 0.11377
-0.059489999 -0.096589997 0.12901001
-0.02723 -0.10433 0.048500001
-0.091069996 -0.071170002 0.11052
0.092 -0.065619998 0.02087
0.022530001 0.11362 0.1637
0.11362 0.022530001 0.1637
0.091389999 -0.066500001 0.12296
-0.089079998 -0.071950004 0.11075
-0.17051999 0.01479 0.02746
-0.17030001 0.04115 0.02702
-0.17038 0.01479 0.027109999
-0.17025 0.04115 0.026900001
-0.096550003 -0.069920003 0.11462
-0.17042001 0.01479 0.02722
0.099799998 0.057259999 0.15212999
0.099169999 0.054639999 0.12592
-0.16385999 -0.03946 0.21493
-0.16377001 -0.01315 0.21562
-0.073320001 0.099100001 0.016000001
-0.036400001 -0.11141 0.18322
-0.16398001 -0.03946 0.21481
-0.16413 -0.01315 0.21526
-0.16401 -0.01315 0.21538
-0.16377001 0.01315 0.21562
-0.16385999 0.039450001 0.21493
-0.16398001 0.039450001 0.21481
-0.16413 0.01315 0.21526
-0.16401 0.01315 0.21538
0.095590003 -0.065470003 0.16366
-0.17043 0.038169999 0.1028
-0.17020001 0.01191 0.10318
0.05525 -0.10052 0.14736
-0.16419999 0.01311 0.21513
-0.16419999 0.039340001 0.21444
-0.072999999 0.082829997 0.085500002
0.0086500002 -0.11745 0.19178
0.11744 -0.0086599998 0.19178
-0.17065001 0.040940002 0.02771
-0.17064001 0.01472 0.027690001
-0.0086300001 -0.11745 0.19178
-0.084069997 -0.071759999 0.041469999
-0.077469997 -0.085380003 0.15549
-0.04834 -0.10187 0.119
-0.16413 0.039379999 0.21457
-0.059149999 -0.094659999 0.1032
-0.16978 0.040849999 0.10354
-0.16944 0.01469 0.1037
0.051649999 0.096129999 0.067110002
-0.16419999 -0.04228 0.16384999
-0.066370003 -0.0973 0.19125
-0.1681 -0.03946 0.1557
-0.17053001 0.04101 0.027480001
0.03018 -0.11126 0.15672
0.11126 -0.03019 0.15672
-0.1681 -0.039450001 0.12621
-0.10618 0.04575 0.0090699997
0.10839 -0.01349 0.068520002
0.1066 -0.01317 0.042550001
-0.084490001 -0.075609997 0.12264
0.096799999 0.067100003 0.19152001
0.055860002 0.097120002 0.10922
0.069169998 0.088799998 0.11716
-0.081579998 -0.072740003 0.041760001
0.085179999 -0.076240003 0.14150999
0.082589999 -0.076399997 0.11568
-0.15699001 0.067709997 0.089809999
0.0132 -0.10444 0.01242
-0.074110001 0.091519997 0.19138999
-0.045910001 0.098729998 0.064740002
-0.13184001 0.030850001 0.21628
-0.15322 0.04535 0.21515
0.10069 0.0557 0.15264
-0.061609998 0.097050004 0.15149
-0.0162 0.10412 0.01287
-0.16419999 -0.049619999 0.022709999
0.056370001 0.093280002 0.066239998
-0.038279999 -0.10752 0.13908
0.069669999 -0.091799997 0.15521
-0.063019998 -0.099509999 0.19125
-0.091200002 -0.074249998 0.18263
-0.088370003 -0.074699998 0.15704
0.035209998 -0.10268 0.059110001
0.082670003 -0.078939997 0.14247
-0.16937 0.01277 0.0263
-0.16914 0.038449999 0.026249999
0.10022 0.061889999 0.19152001
-0.12565 -0.067829996 0.01177
-0.15126 -0.067400001 0.01329
-0.10383 -0.024080001 0.0052700001
-0.018519999 -0.1042 0.02045
-0.1533 -0.045449998 0.21515
-0.13207 -0.031129999 0.21626
-0.12654001 -0.047510002 0.21603
-0.05759 0.096210003 0.11032
0.075609997 -0.089270003 0.18006
-0.17014 0.01437 0.02689
0.10859 0.01179 0.069260001
0.096510001 0.064439997 0.16637
0.093429998 0.065800004 0.14111
-0.070979998 0.094020002 0.19138999
-0.078400001 0.082850002 0.13771001
-0.02324 0.11343 0.16281
0.0092700003 -0.10713 0.04442
-0.14103 -0.068259999 0.02575
-0.10802 -0.069420002 0.068360001
-0.11214 -0.06927 0.02482
-0.12453 -0.068839997 0.047049999
0.11025 0.0218 0.1138
-0.062720001 -0.088160001 0.053750001
-0.087729998 0.071149997 0.066600002
-0.085649997 0.071149997 0.04126
-0.10433 -0.06955 0.18935999
-0.10244 -0.06961 0.16405
-0.09866 -0.069750004 0.11344
-0.10055 -0.069679998 0.13875
-0.16419999 0.062540002 0.18892001
-0.11196 0.071230002 0.13083
-0.13722 0.069980003 0.13276
-0.11196 0.071589999 0.13095
-0.13722999 0.071050003 0.1331
-0.13738 0.068389997 0.13014001
-0.11 0.069349997 0.097860001
-0.11212 0.069279999 0.12805
0.059349999 -0.091959998 0.071929999
0.062270001 -0.092139997 0.097120002
-0.13726 0.068530001 0.13097
-0.11208 0.069320001 0.12833001
0.023150001 0.10452 0.037129998
-0.1373 0.068489999 0.13068999
-0.10512 -0.037599999 0.0082999999
-0.1767 0.046730001 0.049899999
-0.1767 0.050480001 0.074900001
0.10969 -0.016720001 0.093759999
0.10872 -0.01065 0.069260001
0.10281 -0.057470001 0.19234
-0.01051 -0.10874 0.069260001
0.10599 -0.051419999 0.19166
0.051419999 -0.106 0.19166
-0.12724 0.056299999 0.21398
-0.15175 0.059870001 0.20947
0.10097 -0.042149998 0.071070001
0.1025 -0.043019999 0.096179999
-0.075560004 -0.082379997 0.1051
-0.077720001 -0.082769997 0.13017
0.03599 0.10389 0.078869998
-0.13359 0.02179 0.21646
-0.16419999 0.01361 0.0207
0.098820001 0.064170003 0.19152001
-0.01572 -0.11678 0.19178
-0.06532 -0.09482 0.15395001
-0.13752 0.068860002 0.19418
-0.11256 0.069729999 0.19628
-0.01059 -0.11563 0.16727
0.01065 -0.11562 0.16727
0.11562 -0.01066 0.16727
0.035810001 0.10119 0.042229999
0.098930001 0.048610002 0.083039999
0.057519998 -0.10283 0.19178
-0.1772 0.02627 0.14142001
-0.1772 0.02626 0.14140999
0.10242 0.031660002 0.0403
-0.12586001 0.058740001 0.21178
-0.16419999 -0.01777 0.15974
0.023150001 0.11174 0.13868
0.11174 0.023150001 0.13868
0.10375 0.03314 0.064970002
0.10342 0.02826 0.04047
0.096390001 0.059689999 0.12796
0.098870002 0.058940001 0.15281001
-0.16642 0.038899999 0.10402
-0.1652 0.01399 0.1043
-0.17027999 0.038819999 0.10301
-0.16576 0.038929999 0.026000001
-0.16508 0.01399 0.025699999
-0.16424 0.01399 0.1057
-0.16496 0.038929999 0.10441
-0.16446 0.038929999 0.025
-0.16466001 0.01399 0.02533
-0.16446 0.01399 0.025
-0.16461 0.038929999 0.10477
-0.16424 0.038929999 0.02428
-0.16432001 0.038929999 0.02465
-0.16432001 0.01399 0.02465
-0.16424 0.01399 0.02428
-0.16437 0.038929999 0.10521
-0.16528 0.038929999 0.10419
-0.16551 0.01399 0.10409
-0.16528 0.038929999 0.02585
-0.16551 0.01399 0.02595
-0.16601001 0.038929999 0.026070001
-0.16576 0.01399 0.02603
-0.16506 0.038929999 0.02572
-0.16486 0.01399 0.02557
-0.16419999 0.038929999 0.0241
-0.16436 0.038929999 0.024839999
-0.16436 0.01399 0.024839999
-0.16419999 0.01399 0.0241
-0.16666999 0.01401 0.02609
0.10751 -0.0482 0.19166
-0.167 0.03889 0.10394
-0.16609 0.01397 0.104
0.00728 -0.10552 0.01991
-0.16711999 0.01402 0.02613
-0.16646001 0.038940001 0.026110001
0.016140001 -0.1041 0.01242
-0.16835999 0.01403 0.10384
-0.16790999 0.03889 0.02617
-0.16419999 0.01003 0.20811
-0.044070002 0.10598 0.14828999
-0.16419999 0.030099999 0.19337
-0.16745 0.038899999 0.10391
-0.16745 0.01401 0.10391
-0.16881999 0.01404 0.10381
-0.16790999 0.038910002 0.10388
0.087329999 -0.079089999 0.19163001
0.086759999 -0.077129997 0.16683
-0.167 0.014 0.10394
-0.16863 0.038860001 0.0262
-0.16784 0.014 0.02616
-0.1706 0.038869999 0.10236
-0.17068 0.038869999 0.10199
-0.17065001 0.01403 0.10224
-0.17061 0.01403 0.10243
-0.17056 0.038869999 0.10255
0.11081 0.040070001 0.19171999
0.040070001 0.11081 0.19171999
0.032400001 0.10505 0.079740003
0.073310003 0.0832 0.092739999
0.04535 0.10159 0.098130003
-0.08715 -0.075839996 0.15662
0.10287 -0.062240001 0.01204
-0.15185 0.057089999 0.21195
-0.05449 0.10088 0.14641
-0.1681 -0.04033 0.15338001
0.093209997 -0.071589999 0.18825001
-0.16419999 -0.0099799996 0.20814
-0.16419999 -0.029929999 0.19347
-0.1681 -0.04033 0.12853
-0.16965 0.01398 0.1036
-0.079439998 0.084250003 0.16264001
-0.16419999 -0.0070500001 0.13087
0.10325 0.034839999 0.064879999
0.10193 0.033360001 0.040210001
0.085859999 -0.06893 0.081029996
0.084909998 -0.06735 0.056370001
0.10328 -0.03717 0.076289997
0.10159 -0.036789998 0.051619999
-0.13755 0.071330003 0.19283
-0.11293 0.072439998 0.19486
0.059429999 -0.093999997 0.09826
0.088770002 0.07395 0.1591
0.085699998 0.074919999 0.1346
-0.15189999 0.055690002 0.21318001
-0.12729 0.05491 0.21522
-0.0013 -0.11788 0.19178
-0.0013 0.11788 0.19178
0.11788 -0.0013 0.19178
0.00129 -0.11788 0.19178
0.00129 0.11788 0.19178
0.11788 0.00129 0.19178
-0.11576 -0.069150001 0.19549
-0.14498 -0.068130001 0.19498
-0.12023 -0.06899 0.15741
-0.13673 -0.06842 0.18246
-0.12848 -0.068700001 0.16993
-0.11198 -0.069279999 0.14488
0.00507 0.11086 0.093759999
0.11086 0.00507 0.093759999
0.11771 0.0053099999 0.19178
0.00765 0.11586 0.16727
0.0053099999 0.11771 0.19178
0.11586 0.00765 0.16727
0.0051899999 0.11429 0.14277001
0.11429 0.0051899999 0.14277001
0.0121 0.11203 0.11826
0.11203 0.0121 0.11826
0.0096500004 0.11055 0.093759999
0.11055 0.0096500004 0.093759999
0.11397 0.0099099996 0.14277001
0.0099099996 0.11397 0.14277001
0.11258 0.0051299999 0.11827
0.0051299999 0.11258 0.11827
0.0075900001 0.11415 0.14277001
0.0052499999 0.116 0.16727
0.116 0.0052499999 0.16727
0.11415 0.0075900001 0.14277001
-0.12223 -0.06797 0.20269001
0.00501 0.10915 0.069260001
0.10915 0.00501 0.069260001
0.11007 0.01424 0.093759999
-0.00118 0.10588 0.02025
0.10588 -0.00118 0.02025
-0.00118 -0.10588 0.02025
0.0011699999 -0.10588 0.02025
0.0011699999 0.10588 0.02025
0.10588 0.0011699999 0.02025
0.11033 0.01197 0.093759999
0.0095199998 0.10885 0.069260001
0.00978 0.11226 0.11826
0.11226 0.00978 0.11826
0.01197 0.11033 0.093759999
0.10885 0.0095199998 0.069260001
0.0074 0.11073 0.093759999
0.11073 0.0074 0.093759999
0.10453 -0.054400001 0.19178
0.054389998 -0.10454 0.19178
-0.16449 0.062410001 0.063050002
0.0048199999 0.10573 0.02025
0.10573 0.0048199999 0.02025
0.0071399999 0.10732 0.04476
0.10732 0.0071399999 0.04476
-0.056049999 -0.098559998 0.12811001
0.0049000001 -0.11088 0.093759999
0.11088 -0.0049000001 0.093759999
0.00514 -0.11773 0.19178
0.11773 -0.00514 0.19178
0.0071399999 -0.11591 0.16727
0.1159 -0.0071399999 0.16727
0.1143 -0.00502 0.14277001
0.00502 -0.11431 0.14277001
0.0072699999 0.10902 0.069260001
0.10902 0.0072699999 0.069260001
-0.0048799999 -0.11088 0.093759999
-0.0048799999 0.11088 0.093759999
-0.13747001 0.072999999 0.19275001
-0.1129 0.072999999 0.19483
-0.0051199999 -0.11773 0.19178
-0.0070699998 0.11591 0.16727
-0.0070699998 -0.11591 0.16727
-0.0051199999 0.11773 0.19178
-0.0049999999 -0.11431 0.14277001
-0.0049999999 0.1143 0.14277001
-0.01219 -0.11722 0.19178
0.11216 -0.01095 0.11826
0.01094 -0.11216 0.11826
0.11063 -0.0088299997 0.093759999
0.0088299997 -0.11064 0.093759999
0.0090699997 -0.11405 0.14277001
0.11405 -0.0090800002 0.14277001
0.00496 -0.11259 0.11827
0.11259 -0.00496 0.11827
0.11419 -0.0070799999 0.14277001
0.00508 -0.11602 0.16727
0.11601 -0.00508 0.16727
0.0070799999 -0.11419 0.14277001
-0.0108 0.11218 0.11826
-0.0108 -0.11218 0.11826
-0.0087299999 -0.11064 0.093759999
-0.0087299999 0.11064 0.093759999
-0.0089699998 -0.11406 0.14277001
-0.0089699998 0.11406 0.14277001
0.11025 -0.01277 0.093759999
0.0048400001 -0.10917 0.069260001
0.10916 -0.0048400001 0.069260001
-0.0049399999 0.11259 0.11827
-0.0049399999 -0.1126 0.11827
-0.0070099998 -0.1142 0.14277001
-0.0050599999 -0.11602 0.16727
-0.0050599999 0.11602 0.16727
-0.0070099998 0.1142 0.14277001
-0.01258 -0.11028 0.093759999
0.01082 -0.11046 0.093759999
0.11234 -0.0089499997 0.11826
0.0089499997 -0.11234 0.11826
0.11045 -0.01083 0.093759999
0.10892 -0.0087099997 0.069260001
0.0087099997 -0.10893 0.069260001
0.11077 -0.0068999999 0.093759999
0.0068999999 -0.11077 0.093759999
-0.0048199999 -0.10917 0.069260001
-0.0048199999 0.10917 0.069260001
0.10574 -0.0046600001 0.02025
0.0046600001 -0.10575 0.02025
0.10735 -0.0066499999 0.04476
0.0066499999 -0.10736 0.04476
-0.01068 0.11047 0.093759999
-0.01068 -0.11047 0.093759999
-0.0088499999 -0.11235 0.11826
-0.0088499999 0.11235 0.11826
-0.0086099999 -0.10893 0.069260001
-0.0086099999 0.10893 0.069260001
