# .PCD v0.7 - Point Cloud Data file format
VERSION 0.7
FIELDS x y z
SIZE 4 4 4
TYPE F F F
COUNT 1 1 1
WIDTH 1496
HEIGHT 1
VIEWPOINT 0 0 0 1 0 0 0
POINTS 1496
DATA ascii
-0.0067799999 -0.00052 0.20074999
-0.0091899997 -0.00089000002 0.20088999
-0.01935 -0.00233 0.19939999
-0.01808 0.1175 0.22408
0.01312 -0.0020600001 0.18328999
-0.02069 -0.0020600001 0.19891
0.048749998 -0.1175 0.29942
0.0041200002 -0.00159 0.19612999
-0.01778 -0.1175 0.22612999
-0.07079 0.048099998 0.03726998
-0.017340001 -0.11745 0.22356999
-0.072329998 0.04541 0.048989981
-0.064779997 0.07 0.24981
-0.068080001 0.0528 0.053429991
-0.069030002 0.0515 0.052939981
-0.04868 -0.01596 0.18628
-0.021989999 -0.095739998 0.14705999
-0.0218 -0.095020004 0.14627999
-0.021430001 -0.095020004 0.14692
-0.068999998 0.042509999 0.074689984
-0.068999998 0.043000001 0.074689984
-0.076010004 -0.01757 0.12345999
-0.02888 -0.050000001 0.11459999
-0.068999998 0.042020001 0.075239986
-0.035379998 -0.1175 0.25439999
0.024590001 -0.1175 0.31617999
0.050889999 -0.1174 0.30482998
0.053369999 0.11581 0.30693001
-0.068999998 -0.043000001 0.076220006
-0.0243 0.11716 0.2155
-0.068999998 -0.042509999 0.076719999
-0.068999998 -0.042020001 0.076719999
0.05153 0.11735 0.30627
-0.071570002 0.04699 0.043799996
-0.022779999 0.11708 0.21371
-0.056469999 0.07 0.24138999
-0.073360004 -0.064999998 0.2306
-0.072789997 -0.064999998 0.31061
0.051380001 0.11744 0.30789998
-0.032760002 -0.055500001 0.11459999
0.051130001 0.1175 0.30770999
-0.02709 -0.11563 0.19769
-0.064000003 0.1175 0.32222
-0.034880001 -0.064999998 0.24873
-0.02912 -0.057 0.086799979
-0.028030001 -0.1175 0.3881
-0.028000001 0.11526 0.19487
-0.069899999 0.05006 0.046489984
-0.071570002 0.09883 0.31243998
-0.072159998 0.097609997 0.23603
-0.07243 0.097000003 0.236
-0.071879998 0.097000003 0.31241
-0.071819998 0.097000003 0.31241
-0.072250001 0.097000003 0.23602
-0.071699999 0.097000003 0.31241
-0.07164 0.097000003 0.31241
-0.072180003 0.097000003 0.23602
-0.072310001 0.097000003 0.23600999
-0.071620002 0.097609997 0.31242001
-0.02633 0.11627 0.20618999
-0.03036 -0.081909999 0.13477999
-0.026419999 0.11623 0.20512
-0.02864 -0.11499 0.19315
-0.034290001 0.1175 0.33824
-0.073289998 -0.04194 0.069619983
-0.0088 -0.064999998 0.24256
-0.029820001 0.11377 0.18693
0.051600002 -0.11744 0.31018001
0.051879998 -0.11735 0.31015
-0.030169999 0.07333 0.12830999
-0.030300001 -0.061000001 0.11459999
-0.03022 0.083559997 0.13619
-0.03035 0.092699997 0.14444999
-0.029820001 -0.11145 0.17671999
-0.03036 -0.057 0.091939986
-0.029899999 -0.095619999 0.14730999
-0.030579999 -0.061000001 0.11395
-0.03043 -0.057119999 0.098629981
-0.030379999 -0.057429999 0.10267
-0.03032 -0.057950001 0.10527
-0.03036 -0.058899999 0.10844
-0.030549999 0.096989997 0.14919999
-0.030339999 -0.06027 0.11185999
-0.030409999 -0.057 0.09581998
-0.071319997 0.10102 0.31428999
-0.03035 -0.059519999 0.11031999
-0.03035 -0.061000001 0.11338
-0.034540001 -0.11749 0.33980998
-0.030200001 -0.10484 0.15936999
-0.029510001 0.11187 0.17831999
-0.02957 -0.11287 0.18189
-0.030579999 0.056419998 0.10857999
-0.030479999 0.065289997 0.12123999
-0.075939998 0.01785 0.13158
-0.03021 -0.092780001 0.14357999
-0.03011 -0.094999999 0.14568999
-0.02994 0.07869 0.13258
-0.030379999 -0.10903 0.16902
-0.071110003 -0.041979998 0.071099997
-0.030370001 0.06078 0.11606999
-0.03028 -0.11052 0.17329
-0.064489998 -0.11748 0.32539999
-0.03042 -0.10692 0.16384999
0.068290003 0.099459998 0.31601998
-0.064630002 0.11739 0.31900001
-0.029850001 0.11027 0.17286
-0.030959999 -0.097489998 0.14837
-0.030339999 0.058090001 0.11205
-0.030169999 -0.090460002 0.14136
-0.029990001 0.097000003 0.14859
-0.077090003 0 0.055440009
-0.076590002 0 0.12711999
-0.030789999 -0.096819997 0.14760999
-0.070730001 0.102 0.32595998
-0.071889997 -0.098750003 0.25507998
0.02142 0.1175 0.29168999
-0.071439996 -0.10174 0.25529999
-0.072049998 -0.082249999 0.32043999
0.02014 0.034680001 0.15665999
-0.032650001 0.10746 0.16645999
-0.071419999 -0.064999998 0.29387999
-0.072899997 -0.064999998 0.22501999
-0.076329999 -0.0070199999 0.12952
-0.07632 -0.021059999 0.062629998
0.01065 -0.064999998 0.24056999
-0.076449998 0.01739 0.061969995
-0.076580003 -0.01404 0.060229987
0.068559997 0.09821 0.31799999
0.05906 -0.11138 0.3184
-0.075800002 0.035239998 0.066430002
0.02489 0.1175 0.33111998
-0.034529999 0.1175 0.29905999
-0.076130003 0.026079999 0.065239996
-0.076269999 0.0086899996 0.13038999
-0.047619998 0.031970002 0.18855999
0.02462 -0.11749 0.33265999
-0.035289999 -0.11747 0.30383998
0.02516 -0.1175 0.33168
-0.033670001 -0.1175 0.30089
-0.03421 -0.11749 0.30186999
-0.064929999 0.1174 0.32179999
-0.033500001 -0.10403 0.15812999
-0.021740001 -0.064999998 0.24304
-0.048659999 -0.034680001 0.18558
-0.033519998 -0.1025 0.15536
-0.065739997 0.1165 0.32218
-0.073650002 -0.0713 0.15563999
-0.071939997 0.10001 0.25286999
-0.071500003 0.099629998 0.31805998
-0.066710003 0.11442 0.32275
-0.044679999 0.06921 0.21078999
-0.027249999 -0.098870002 0.15016
0.0029500001 -0.064960003 0.24324
0.067309998 -0.10188 0.32192001
0.055810001 0.11445 0.31683999
0.027039999 -0.064999998 0.24763
-0.065229997 -0.11722 0.3213
-0.065119997 0.1175 0.25117999
-0.065920003 -0.11625 0.32133999
-0.072760001 0.044210002 0.063340008
0.06865 -0.099600002 0.32212999
-0.04183 0.1175 0.38440001
0.060350001 -0.11026 0.32060999
-0.048149999 0.00801 0.18742
0.068209998 -0.097130001 0.31529
-0.03094 0.10365 0.15732999
0.064219996 0.10558 0.31952
0.068489999 0.097000003 0.31529
-0.070699997 0.041990001 0.063329995
-0.072700001 0.041949999 0.063329995
-0.065370001 0.11789 0.25050998
-0.04651 0.066419996 0.20302999
0.064209998 -0.10586 0.31992
0.05638 -0.11417 0.32141998
-0.04614 0.048519999 0.18987
-0.064230002 -0.1175 0.25450999
0.030060001 -0.064999998 0.25092
0.068570003 0.099809997 0.32104999
0.02647 0.07 0.25013
-0.067000002 0.054049999 0.067819983
0.061469998 0.10892 0.31939
-0.046130002 0.054900002 0.19193
-0.066519998 0.11619 0.25002
0.068470001 -0.079999998 0.31077999
-0.044629999 0.069839999 0.21509999
-0.04662 -0.062919997 0.19428
-0.069580004 0.10735 0.32086
-0.069009997 0.10884 0.32099998
-0.046009999 0.052099999 0.19094999
0.0094499998 0.1175 0.39895999
-0.066289999 -0.11659 0.25014001
-0.0416 0.1175 0.23762999
-0.070370004 0.10466 0.32102999
-0.036499999 0.097489998 0.14911999
0.065959997 -0.1037 0.32038
-0.067209996 -0.11501 0.25005999
-0.068010002 0.11331 0.25040999
-0.068360001 -0.11247 0.25027001
0.05914 0.11133 0.31878
0.01077 0.1175 0.25224999
-0.072729997 0.09025 0.22722
-0.072779998 0.076750003 0.28605998
-0.07147 0.099629998 0.32047999
-0.071390003 -0.099459998 0.32043999
-0.070859998 -0.10204 0.3206
0.067340001 0.10149 0.32027999
-0.071199998 0.10133 0.32062
-0.046769999 -0.058910001 0.18905999
-0.070809998 0.10312 0.32060999
-0.069760002 0.10893 0.24995999
-0.067139998 -0.11366 0.31941
-0.069600001 -0.10923 0.24998
-0.0471 0.046730001 0.18934999
-0.070579998 -0.10583 0.25013
-0.046569999 -0.063919999 0.19600999
-0.047850002 0.057829998 0.19306999
0.025010001 0.1175 0.35071
-0.03418 0.1175 0.35782999
-0.03441 0.1175 0.31865001
0.025 -0.1175 0.35064
-0.034159999 -0.1175 0.35780001
-0.070900001 0.10568 0.25005999
-0.035719998 0.098030001 0.14914
-0.0691 -0.10824 0.31996
0.032880001 -0.064999998 0.25581998
-0.04989 -0.11747 0.31461999
-0.030069999 -0.10114 0.15328999
0.018759999 -0.1175 0.26853001
-0.04727 -0.054189999 0.18628
-0.046410002 0.068389997 0.20716
-0.031750001 -0.1175 0.36217999
0.025800001 -0.1175 0.35209998
-0.04668 -0.060849998 0.19099
0.00127 -0.1174 0.22281
-0.075759999 0.020719999 0.14249
-0.065159999 -0.064999998 0.27754
-0.070819996 -0.064999998 0.21957999
-0.020509999 0.069899999 0.25343999
-0.04654 -0.064450003 0.19781999
-0.047180001 -0.056139998 0.18720999
-0.075750001 -0.020880001 0.14289999
-0.03486 0.099100001 0.15053
-0.071879998 -0.064999998 0.29945999
-0.03424 -0.1175 0.2854
-0.071759999 0.1014 0.2491
-0.071319997 0.10392 0.24912
-0.07209 -0.00031 0.16358
-0.04775 0.06047 0.19480999
-0.047740001 0.065219998 0.20017
-0.048129998 -0.050000001 0.18521999
-0.03255 -0.1175 0.36071998
-0.034139998 0.10096 0.15337999
-0.065459996 -0.11741 0.25207999
-0.073320001 -0.043000001 0.061019987
-0.047959998 -0.051929999 0.1856
-0.062959999 -0.061000001 0.36785999
-0.076169997 3.9999999e-05 0.019209981
-0.070710003 -0.00126 0.018099993
0.017100001 0.1175 0.37239
-0.036260001 0.1175 0.27934998
0.019680001 0.1175 0.27197
0.023150001 0.1175 0.3114
0.053660002 -0.1165 0.31884998
0.01671 -0.025 0.16881
0.06893 -0.064999998 0.30939001
0.068580002 -0.099119999 0.31843001
-0.07209 -0.00106 0.16409999
-0.038290001 -0.1175 0.23058
0.021679999 -0.1175 0.29236001
0.01585 -0.1175 0.24471
-0.052080002 0.059999999 0.029239982
-0.047649998 0.06284 0.19734
-0.071079999 -0.043000001 0.061829984
-0.070589997 -0.00063000002 0.018599987
-0.075989999 -0.031610001 0.056569993
-0.072999999 0.07 0.28788
-0.073399998 0.07 0.23267999
-0.031959999 0.069899999 0.25156999
0.01777 0.022940001 0.17108999
-0.073320001 -0.0011699999 0.019160002
0.02005 0.02726 0.13499999
-0.07209 0.00125 0.16305999
-0.034449998 0.07 0.25090998
-0.040720001 0.1175 0.26949
0.0063200002 0.1175 0.24237999
-0.070459999 -0.00113 0.019109994
0.020500001 -0.1175 0.37064999
0.01912 0.069909997 0.24871999
-0.072020002 0.099210002 0.24726
-0.067829996 -0.055489998 0.068949997
-0.06701 -0.057 0.068949997
-0.071079999 0.043000001 0.057810009
-0.073169999 0.076750003 0.23085999
0.01315 0.1175 0.38323998
-0.03813 0.1175 0.36868
-0.073310003 0.043000001 0.058070004
0.01785 -0.1175 0.37992001
-0.034400001 -0.1175 0.37145001
-0.073129997 -0.073629998 0.21551
-0.072120003 -0.090879999 0.26534998
-0.074450001 0.038279999 0.058730006
-0.072920002 0.041859999 0.058459997
0.0090100002 0.024259999 0.19318999
0.0077399998 0.02421 0.19471
0.01117 0.024259999 0.19009
-0.073590003 -0.069339998 0.1485
-0.074510001 -0.038539998 0.058050007
-0.07378 0.00104 0.16409999
-0.01179 0.055610001 0.091320008
-0.050700001 -0.064850003 0.19891
7.0000002e-05 0.023569999 0.19995999
-0.00176 0.023569999 0.20073
-0.075829998 -0.035149999 0.058319986
-0.047910001 0.054790001 0.089289993
-0.074249998 -0.055819999 0.15559
-0.049940001 -0.064999998 0.26289999
-0.065739997 -0.064999998 0.2147
-0.0043000001 0.023050001 0.2014
0.0049999999 0.06989 0.24620999
0.01223 -0.024900001 0.18319999
0.01254 0.0253 0.18757999
0.068089999 0.083499998 0.30526
0.01213 0.0253 0.18856999
0.01101 -0.024900001 0.18615
0.01141 -0.024900001 0.18516999
-0.01805 0.02445 0.20107
-0.01873 -0.02554 0.19875999
-0.01732 -0.025529999 0.19909999
-0.05068 -0.064999998 0.20051999
0.020479999 -0.025 0.1565
-0.01661 -0.025529999 0.19927
-0.017340001 0.02445 0.20124999
0.043889999 -0.064999998 0.25897998
-0.072480001 0.083499998 0.29484999
0.0208 0.024189999 0.16130999
-0.01193 0.022949999 0.20209
-0.01481 -0.02603 0.19955999
-0.0416 0.11744 0.21967
-0.01083 0.023080001 0.20219
-0.01149 -0.02564 0.19985999
-0.0062199999 0.02382 0.20191999
-0.0073299999 -0.02486 0.19959
-0.0126 -0.025769999 0.19975999
-0.01374 0.02345 0.20180999
0.01004 -0.025939999 0.18767999
0.00612 0.022089999 0.19595
0.00293 0.02204 0.19829999
-0.0098400004 0.02327 0.20212999
-0.0085399998 -0.025049999 0.19965999
-0.0012000001 -0.02612 0.19767
-0.01922 -0.02643 0.19849999
-0.01949 0.02177 0.20028999
0.020160001 -0.02399 0.13284999
-0.00303 -0.026110001 0.19844
0.0083799995 -0.025939999 0.19016999
-0.0086399997 0.023460001 0.20206
-0.042040002 0.1175 0.2217
0.0058800001 0.1175 0.22645999
-0.041159999 0.1175 0.25356001
0.0071100001 -0.02599 0.19169
-0.0095199998 -0.02524 0.19972
-0.067249998 -0.064999998 0.28298998
-0.02121 -0.02603 0.19777
0.01365 0.0219 0.18442999
0.0126 -0.02603 0.18214999
-0.020160001 0.0219 0.20005
0.04583 -0.1175 0.27559999
-0.0083100004 -0.1175 0.26146999
0.051660001 -0.1175 0.32323998
-0.051569998 0.07 0.2146
0.0063299998 0.11744 0.22442
0.0035999999 -0.025459999 0.19497
0.0046299999 0.02228 0.19727999
-0.02055 -0.02617 0.19802
0.0060100001 -0.1175 0.22744
-0.04157 -0.1175 0.22481999
0.0019 -0.025699999 0.19599
0.0050900001 -0.025660001 0.19363999
-0.070660003 0.04834 0.061019987
-0.070909999 0.047850002 0.013529986
0.020230001 0.022940001 0.14115
0.0062299999 -0.11747 0.22615999
-0.040910002 -0.11742 0.22098999
-0.0054100002 -0.025629999 0.19906999
-0.041129999 -0.11745 0.22227
0.046659999 0.07 0.25532001
0.02035 -0.01856 0.12075
0.020409999 0.022940001 0.15190999
0.024219999 -0.1175 0.39655998
0.02035 0.01864 0.12108999
-0.073530003 0.076269999 0.18268
-0.047019999 -0.057 0.083629996
-0.01901 0.02266 0.20054999
0.0134 0.07 0.24557
-0.055020001 -0.064999998 0.26778001
-0.048009999 0.054019999 0.08532998
-0.074330002 -0.053879999 0.15366
0.046689998 0.1175 0.36883
-0.072470002 0.045400001 0.025920004
-0.072190002 0.045419998 0.072050005
0.01328 0.02304 0.18548
-0.05624 0.059999999 0.02561
-0.060369998 0.07 0.27217001
-0.069190003 0.07 0.22744
-0.076729998 -0.0023000001 0.16409999
-0.0047599999 -0.11708 0.21449
-0.068669997 0.052170001 0.030819982
-0.067479998 0.053429998 0.076029986
-0.00459 -0.11674 0.20941
-0.068910003 0.05147 0.075300008
-0.069150001 0.051520001 0.03057
-0.035209998 -0.032979999 0.19146
-0.062150002 0.00106 0.1811
-0.034159999 0.01495 0.19374
-0.044270001 -0.096079998 0.14713
0.00029 -0.095389999 0.147
-0.01123 0.069909997 0.24958999
0.00038000001 -0.095030002 0.14660999
-0.043990001 -0.095009997 0.14594999
-0.072209999 0.083499998 0.33304998
-0.068439998 0.05212 0.075540006
-0.072910003 -0.081500001 0.20524999
-0.050039999 -0.050000001 0.11485
0.00056999997 -0.095030002 0.14692999
-0.043439999 -0.095009997 0.14691
-0.025420001 0.059999999 -0.056089997
-0.074419998 -0.051929999 0.15273999
-0.068999998 0.042750001 0.096520007
-0.068999998 0.042259999 0.096520007
-0.068999998 0.042750001 0.052859992
-0.068999998 0.043000001 0.052859992
-0.068999998 0.043000001 0.096520007
-0.043620002 -0.095009997 0.14658999
-0.043719999 -0.095370002 0.14697999
-0.044860002 -0.074900001 0.12932999
-0.05517 0.059999999 -0.027590007
0.03875 0.1175 0.24856
-0.059470002 0.054030001 0.07832998
-0.076169997 -0.0087900003 0.14320999
-0.075839996 -0.02636 0.10371
-0.050480001 -0.050000001 0.11459999
-0.0072699999 -0.050000001 0.11459999
-0.016589999 -0.1175 0.40414
-0.068999998 0.042020001 0.096789986
-0.068999998 0.042020001 0.053689986
0.03376 -0.1175 0.28398001
0.039590001 -0.1175 0.33162001
-0.05037 -0.1175 0.23896
-0.02038 -0.1175 0.26984999
0.0096000005 -0.1175 0.30072999
0.0037700001 -0.1175 0.25308999
-0.049449999 -0.051589999 0.11513999
-0.074579999 -0.050000001 0.15235999
-0.074670002 -0.050000001 0.15239999
-0.075649999 -0.02077 0.15783
-0.070890002 -0.049350001 0.081449986
-0.068999998 0.042259999 0.053409994
0.068619996 0.07 0.30520999
0.049040001 -0.11736 0.28371
0.052730002 -0.11745 0.32595
-0.0048799999 0.06989 0.24897
-0.0068399999 -0.050000001 0.11485
0.056090001 0.11506 0.32788998
0.050659999 0.11657 0.28597999
0.0319 0.1175 0.37061
-0.068999998 -0.043000001 0.055159986
-0.068999998 -0.043000001 0.097279996
-0.01198 -0.11424 0.18939999
0.0092900004 -0.1175 0.23319998
-0.00346 0.11699 0.21359
-0.045150001 0.11733 0.21741
0.03328 0.07 0.22753
-0.049229998 -0.1175 0.26995
-0.068999998 -0.042750001 0.097530007
-0.068999998 -0.042259999 0.055909991
-0.068999998 -0.042259999 0.097530007
-0.068999998 -0.042020001 0.097530007
-0.068999998 -0.042020001 0.055909991
-0.076569997 0.01739 0.044050008
-0.074210003 0.062770002 0.15418999
0.053320002 0.11737 0.32690001
0.049729999 0.11734 0.28564999
-0.042780001 -0.064999998 0.22463
0.0034399999 0.11737 0.22069
0.02015 -0.029999999 0.1513
-0.046560001 -0.11605 0.20052999
-0.068999998 -0.042509999 0.05565998
0.02001 -0.02899 0.13840999
-0.071060002 0.04778 0.064280003
-0.07209 0.046190001 0.023330003
-0.01218 0.090279996 0.14274
0.05424 0.1166 0.32723001
-0.078000002 0 0.16409999
-0.0077200001 -0.050000001 0.11511
0.03889 0.11741 0.24693
-0.05404 -0.057 0.080139995
-0.04287 0.11721 0.21472999
-0.0027000001 0.11695 0.21269
0.02922 0.1175 0.26027
-0.073090002 0.089769997 0.17904
0.01912 -0.073519997 0.16670999
-0.047910001 0.07 0.25953999
-0.065030001 0.07 0.22322999
-0.0722 -0.082249999 0.30043998
0.02 -0.029999999 0.14623
-0.07322 -0.064999998 0.25059998
-0.0735 -0.064999998 0.21059999
-0.072640002 -0.064999998 0.33061001
-0.072930001 -0.064999998 0.29060999
-0.00813 -0.052069999 0.11514999
-0.01312 -0.11317 0.18398999
-0.045570001 0.11626 0.20423
0.063649997 0.083499998 0.26962999
0.053240001 0.11742 0.32771
0.049520001 0.11747 0.28808999
-0.072339997 -0.082249999 0.28042999
-0.052420001 -0.052749999 0.11459999
-0.0131 -0.058249999 0.11459999
0.052859999 0.1175 0.32743001
-0.0065600001 0.1175 0.29538
0.049389999 0.1175 0.28799999
-0.04417 0.054159999 0.059190005
-0.04654 -0.1169 0.20878999
-0.07542 -0.038449999 0.10339999
-0.049090002 -0.1175 0.38325998
0.052990001 0.11747 0.32751998
-0.046700001 -0.11724 0.21386999
-0.0074700001 -0.11621 0.20388
-0.0032599999 0.055539999 0.093140006
-0.0075500002 -0.11571 0.19937
-0.046640001 -0.11555 0.19600999
-0.0046999999 0.1175 0.33467999
-0.064120002 0.1175 0.30263001
-0.063890003 0.1175 0.34180999
0.069799997 -0.08106 0.32635
-0.072920002 -0.08202 0.20017
0.065569997 -0.0605 0.021799982
-0.074019998 0.065070003 0.1689
-0.031300001 -0.064999998 0.22959
-0.038460001 -0.064999998 0.26787001
0.027310001 -0.064999998 0.23058
0.049559999 -0.11741 0.36557999
-0.01026 -0.057 0.082289994
-0.047970001 -0.057 0.091309994
-0.073590003 0.07564 0.17838
-0.04363 0.11725 0.21562
0.057149999 0.059999999 -0.025550008
-0.04428 -0.1175 0.37766001
-0.01179 -0.1175 0.39853001
-0.03988 -0.058260001 0.11525999
0.049279999 -0.1175 0.36561
-0.028659999 -0.082450002 0.41573
-0.01234 0.06797 0.12347999
-0.040350001 -0.082879998 0.40933999
0.02035 0.01864 0.10236999
-0.076700002 -0.01404 0.042309999
-0.064580001 0.07 0.27741
-0.047150001 0.1153 0.19398999
-0.0088499999 0.11523 0.19575
0.06566 -0.01842 0.040010005
0.061799999 -0.018510001 0.045870006
-0.069580004 0.050799999 0.027350008
-0.070220001 0.049320001 0.065620005
-0.046730001 -0.064999998 0.21258
0.047150001 -0.064999998 0.26912999
0.057599999 -0.018540001 0.050999999
-0.071429998 0.099129997 0.33155
-0.072310001 0.0973 0.21691999
-0.071719997 0.098520003 0.29334
-0.072020002 0.097910002 0.25512999
-0.07147 0.097910002 0.33153
-0.07175 0.097000003 0.33151001
-0.072570004 0.097000003 0.21689999
-0.072290003 0.097000003 0.25510001
-0.072020002 0.097000003 0.29330999
-0.071589999 0.097000003 0.33151001
-0.072140001 0.097000003 0.25511998
-0.07181 0.097000003 0.29330999
-0.072350003 0.097000003 0.21691999
-0.071719997 0.097000003 0.33151001
-0.071929999 0.097000003 0.29330999
-0.072080001 0.097000003 0.25511
-0.071869999 0.097000003 0.29330999
-0.071529999 0.097000003 0.33151001
-0.071780004 0.097000003 0.29330999
-0.072049998 0.097000003 0.25511
-0.072319999 0.097000003 0.21691999
-0.071500003 0.097000003 0.33151001
-0.07175 0.097609997 0.29332
-0.072379999 0.097000003 0.21690999
-0.071960002 0.097000003 0.29330999
-0.072229996 0.097000003 0.25511
-0.071740001 0.097910002 0.29332998
-0.071489997 0.0973 0.33151999
-0.072039999 0.0973 0.25511998
-0.0722 0.097000003 0.25511
0.049589999 0.11743 0.28727999
-0.072439998 0.097000003 0.21690999
0.02035 -0.01856 0.10202999
0.020609999 -0.017449999 0.092260003
0.04073 -0.083619997 0.21861999
-0.01181 0.063000001 0.28373998
0.067510001 0.017550001 0.036300004
-0.044640001 0.11681 0.21097
-0.0080199996 0.11573 0.20141
-0.071429998 -0.08309 0.35600999
-0.048420001 -0.077590004 0.13139999
-0.0123 -0.086230002 0.13815999
-0.052060001 0.07 0.26374999
0.076690003 -0.01743 -0.0030699968
-0.0080599999 0.11571 0.20086999
-0.044780001 0.11674 0.20935999
0.03602 -0.083619997 0.21417999
-0.053010002 0.018309999 -0.055460006
-0.060010001 0.018340001 -0.047800004
-0.04775 0.11265 0.1814
-0.0098700002 -0.11475 0.19255999
-0.04741 -0.11523 0.19374
-0.04473 0.11676 0.20988999
-0.01068 0.11373 0.18780999
0.062270001 0.059999999 0.010609984
-0.0044300002 0.01856 -0.076590002
-0.026529999 0.017449999 -0.071869999
-0.049029998 0.1175 0.34981999
-0.01956 0.1175 0.32666999
0.01015 0.1175 0.34268999
-0.04927 0.1175 0.31063998
-0.073260002 -0.04194 0.088349998
-0.073320001 -0.04194 0.050879985
-0.00254 0.054280002 0.091809988
-0.075599998 -0.00063999998 0.17522
-0.0704 -0.054049999 0.012669981
0.021 0 0.11637999
-0.069449998 0.018689999 -0.032930017
0.076289997 -0.017130001 0.0087199807
-0.04823 -0.086139999 0.13798
-0.00624 0.11614 0.20516999
-0.01826 -0.064999998 0.22650999
0.00066000002 -0.064999998 0.25861001
-0.045869999 -0.11735 0.21764
-0.0036500001 -0.01826 -0.076710016
0.075029999 -0.01801 -0.01564002
-0.074139997 0.043000001 0.10317999
-0.076700002 0.01739 0.026129991
-0.048360001 0.062120002 0.11736999
-0.01116 -0.055500001 0.11459999
-0.074440002 0.018209999 -0.018770009
0.06876 -0.018829999 0.034480006
-0.0093499999 0.0185 -0.076209992
-0.0163 -0.082800001 0.41992
0.02186 -0.016589999 0.087529987
0.043110002 -0.01764 -0.0634
-0.05446 0.1175 0.37739998
-0.04806 0.11455 0.19001999
-0.01159 0.11298 0.18383999
0.053089999 -0.11747 0.32861999
0.050110001 -0.11741 0.29174
0.0056799999 0.01856 -0.07645002
0.02005 -0.077129997 0.17495999
0.053520001 -0.11733 0.32857999
0.050250001 -0.11736 0.29172
0.053380001 -0.11738 0.32859001
-0.0085699996 -0.01832 -0.076319993
0.072719999 -0.01832 0.025069982
0.01492 -0.01718 -0.075320005
0.073299997 0.017589999 0.022610009
-0.01203 0.076020002 0.13055
-0.048319999 0.070649996 0.12607999
0.071120001 -0.018619999 0.029199988
0.045910001 -0.01761 0.061729997
0.059590001 -0.082149997 0.25094
-0.01216 -0.05737 0.10126999
-0.074040003 0.068910003 0.14787999
-0.060199998 -0.082230002 0.38907999
0.034759998 -0.017170001 -0.068460017
0.047970001 -0.1174 0.28099999
-0.01187 -0.061000001 0.11459999
-0.04874 -0.061000001 0.11459999
-0.047880001 0.01829 -0.060110003
-0.075999998 0.01801 -0.011750013
0.03489 -0.1175 0.36813
-0.01205 0.081129998 0.13449
-0.048379999 0.085979998 0.13789999
-0.01224 0.094850004 0.14686999
-0.048450001 0.090559997 0.14203
0.020369999 -0.018230001 0.095490009
-0.048360001 -0.10767 0.16549
0.05322 -0.0177 -0.055220008
-0.01215 -0.058740001 0.10776
-0.048039999 -0.11099 0.17450999
-0.0116 -0.11192 0.17893
0.062010001 -0.017410001 -0.045220017
-0.068850003 -0.05314 0.077989995
-0.066610001 0.01792 -0.038190007
-0.029850001 0.055199999 0.090310007
-0.01213 -0.057 0.090000004
-0.048590001 -0.057 0.093879998
-0.01157 -0.095229998 0.14737
-0.048220001 -0.096019998 0.14725
-0.056809999 0.01836 -0.051730007
-0.048560001 -0.05785 0.10464999
-0.04888 -0.061000001 0.11426999
-0.01229 -0.061000001 0.11362
0.01014 0.063989997 0.41773999
-0.01178 0.11044 0.17408
-0.01218 -0.057 0.093879998
-0.048640002 -0.057179999 0.10002999
-0.01221 -0.05706 0.097220004
-0.04713 -0.082989998 0.4043
-0.076669998 0.01784 -0.006460011
0.045540001 -0.083010003 0.22308999
-0.01214 -0.057519998 0.10328999
-0.04862 -0.057330001 0.10205999
-0.04862 -0.05706 0.097220004
-0.032159999 0.018200001 -0.069800019
-0.01241 0.059009999 0.11333999
-0.01235 -0.10977 0.17164999
-0.047789998 -0.1124 0.17967999
0.071089998 -0.01777 -0.029170007
-0.0091000004 -0.11507 0.19483
-0.04809 0.076010004 0.13034999
-0.048530001 -0.058109999 0.10595
-0.01211 -0.057780001 0.10459
0.076289997 0.017759999 0.0084100068
-0.01216 -0.059220001 0.10934
-0.048549999 -0.058589999 0.10753
-0.05161 -0.082620002 0.39995998
-0.04854 -0.059889998 0.11112
-0.048549999 -0.059209999 0.10940999
-0.048760001 0.096989997 0.14915
-0.01235 0.097000003 0.14925
-0.01215 -0.059900001 0.11104999
-0.048519999 -0.060630001 0.11265999
-0.048610002 -0.057 0.09581998
-0.0122 -0.057 0.095809996
-0.0713 0.10023 0.33247
-0.071340002 0.10181 0.29609999
-0.036979999 0.017510001 -0.067230016
0.025459999 -0.01708 -0.072420001
-0.01216 -0.059530001 0.11027999
-0.04854 -0.059519999 0.11035
0.074440002 0.01722 -0.019050002
0.054249998 0.01749 -0.054320008
-0.01217 -0.060630001 0.11256999
-0.01235 -0.10619 0.16254999
-0.0093099996 -0.057 0.074620008
-0.070900001 0.01736 -0.029359996
-0.01218 -0.061000001 0.11333999
-0.048530001 -0.061000001 0.11341999
-0.045359999 -0.11664 0.21545999
-0.01215 -0.061000001 0.11395
-0.076880001 0.015900001 0.0094099939
-0.048110001 0.081119999 0.13428999
-0.01212 -0.093889996 0.14466999
-0.049139999 -0.11749 0.35058999
-0.019929999 -0.11748 0.32903001
0.01002 -0.11749 0.34344
0.00294 -0.017550001 -0.076680005
0.050700001 -0.082670003 0.40085998
0.03765 -0.017550001 0.067189991
-0.048269998 -0.10557 0.16067
-0.01213 -0.1041 0.15807
0.0088 -0.017240001 -0.07634002
-0.01143 0.11203 0.17953999
-0.047589999 0.1117 0.17708999
-0.00018 0.01825 -0.076790005
0.031060001 -0.017340001 0.072319984
-0.01539 0.017480001 -0.075159997
0.017480001 0.01815 -0.074640006
0.074320003 -0.017309999 0.019499987
-0.01148 -0.11263 0.18152
-0.047669999 -0.11311 0.18226999
-0.01252 0.05683 0.10959999
-0.048640002 0.05601 0.10756999
-0.076870002 0.01794 -0.0015400052
-0.048470002 0.066629998 0.12254
-0.01249 0.063950002 0.11994
0.048560001 -0.083010003 0.22637999
0.03864 0.01754 0.066659987
0.061760001 -0.082979999 0.25915
0.072460003 0.017069999 -0.025480002
0.02091 -0.01715 -0.073960006
0.023320001 0.11758 0.39985999
-0.074390002 -0.01737 -0.019109994
-0.04865 -0.061000001 0.11371
-0.01037 -0.082690001 0.42118001
-0.075999998 0.026310001 0.082120001
-0.076140001 0.0089299995 0.14726999
-0.075740002 0.02678 0.11589
-0.01222 -0.09166 0.14255999
-0.048190001 -0.093889996 0.14459999
-0.0484 0.05768 0.11104
-0.035289999 -0.082690001 0.41279
-0.048140001 -0.094999999 0.14566
-0.01208 -0.094999999 0.14572999
-0.047970001 0.07869 0.13248
-0.01191 0.078699999 0.13268
-0.01244 -0.10828 0.16736999
-0.048319999 -0.10977 0.17065999
-0.07006 -0.041999999 0.05309999
-0.072169997 -0.041960001 0.08908999
-0.048149999 -0.091569997 0.14238
-0.05367 -0.017550001 -0.054920018
-0.06476 -0.017510001 -0.041220009
0.02988 -0.017069999 -0.070740014
-0.01243 0.061700001 0.11736
-0.048300002 0.059870001 0.11477999
0.071709998 -0.082390003 0.35152999
-0.070770003 -0.08326 0.36309999
0.05971 0.017309999 -0.048270017
-0.048269998 -0.11052 0.17279999
-0.0123 -0.11052 0.17378999
-0.00496 -0.11749 0.33622998
-0.064110003 -0.11749 0.34338999
-0.06487 -0.11747 0.30741
-0.034910001 -0.11748 0.32181999
0.034600001 -0.082570001 0.41281
-0.048379999 -0.10661 0.16291
-0.01246 -0.10723 0.16478999
0.069859996 0.099440001 0.33394
0.06673 0.099469997 0.29809999
-0.073270001 -0.06566 0.13962999
0.020199999 0.07 0.16513999
-0.064439997 0.11744 0.30102
-0.064829998 0.11733 0.33697999
-0.01195 0.10964 0.17136
-0.047759999 0.1109 0.17436999
-0.071429998 0.046999998 0.066870004
-0.01299 -0.097350001 0.14819999
-0.048930001 -0.097620003 0.14852999
-0.048289999 0.05852 0.11277999
-0.0124 0.057659999 0.11132999
-0.048129998 -0.090410002 0.14127
-0.0122 -0.090499997 0.14144999
-0.04809 0.094850004 0.14615999
-0.055780001 -0.082539998 0.39539
-0.048530001 -0.072970003 0.12773
-0.063510001 0.017890001 -0.043260008
-0.01206 0.097000003 0.14894
-0.04792 0.097000003 0.14823
-0.07722 0 0.037510008
-0.076970004 0 0.073359996
-0.07632 0.01739 0.079889983
-0.076459996 0 0.14503999
-0.076719999 0 0.1092
-0.031289998 -0.0605 -0.061760008
0.042879999 -0.082400002 0.40757999
-0.04854 -0.01757 -0.059579998
0.042459998 -0.01791 0.064219981
-0.0129 -0.09702 0.14782
-0.048670001 -0.096620001 0.14739999
-0.07045 -0.017270001 -0.030699998
0.05119 0.063979998 0.39570999
0.03204 0.017519999 0.071399987
0.02593 -0.017580001 0.078549981
0.02757 -0.064999998 0.21353999
-0.076889999 -0.017680001 -0.0016900003
0.07694 -0.01732 0.002429992
0.068269998 -0.01729 -0.035230011
-0.00191 -0.1175 0.39232999
-0.048760001 -0.096950002 0.14778
0.039050002 -0.01743 -0.066240013
0.04284 0.017759999 -0.063679993
-0.01207 -0.11099 0.17549999
-0.067589998 -0.0605 -0.012930006
0.02307 0.017510001 0.084100008
0.076449998 0.017379999 -0.0077100098
0.02032 0.017759999 0.096939981
9.9999997e-05 0.1171 0.21584
0.049559999 0.017550001 -0.058690012
-0.076580003 -0.01053 0.076949984
0.061280001 0.09962 0.26282999
0.05122 -0.082450002 0.23038
-0.076679997 -0.01778 -0.0066100061
0.027939999 -0.01739 0.075499982
-0.01362 -0.01747 -0.075540006
-0.043680001 0.01753 -0.063219994
0.075669996 0.017510001 -0.013420016
0.050269999 -0.01706 0.058299989
-0.064630002 -0.082230002 0.38161999
0.016559999 -0.082419999 0.41992998
0.071120001 -0.08213 0.34191999
0.047189999 -0.082730003 0.40432
-0.078000002 -0.00266 0.16542999
-0.072319999 0.0986 0.20265
0.070600003 0.01715 0.03075999
0.026559999 0.0178 0.077450007
-0.070919998 0.10261 0.30826998
-0.070540003 0.10139 0.34364998
-0.02399 -0.017419999 -0.072939992
0.057840001 0.01757 0.050679982
-0.036540002 -0.01719 -0.067560017
0.058010001 0.017419999 -0.05043
0.0469 0.01754 -0.060840011
-0.06786 -0.017480001 -0.036159992
-0.021360001 -0.082560003 0.41876
0.076250002 -0.01771 -0.010010004
0.045559999 0.017790001 0.062040001
-0.00636 -0.08213 0.42166001
0.02455 0.01761 0.08050999
0.073009998 -0.01819 -0.024210006
-0.075949997 -0.017580001 -0.012089998
-0.00141 -0.082039997 0.42192
-0.0482 0.097000003 0.14853999
0.0513 0.01778 0.057280004
0.055489998 -0.082280003 0.39569998
0.053739998 -0.01719 0.055130005
-0.03008 -0.0174 -0.07070002
-0.075769998 0.017109999 0.15877999
0.01063 -0.10419 0.1723
0.071570002 -0.082730003 0.3558
-0.01151 -0.057 0.08743
0.075429998 -0.01716 0.015469998
0.05404 -0.082450002 0.23527999
0.03483 0.017990001 -0.068340003
-0.07175 -0.099129997 0.27267
-0.07203 -0.098379999 0.23749
-0.01867 -0.01753 -0.074499995
0.04854 -0.01764 -0.059590012
-0.02141 0.1175 0.28736001
0.034540001 0.1175 0.27998999
0.0082999999 0.1175 0.30339
0.038010001 0.1175 0.31941998
0.056340002 -0.082149997 0.24078999
-0.07158 -0.10136 0.23771
0.04211 0.01749 0.064529985
0.066359997 0.0175 -0.038729995
0.034189999 -0.017510001 0.069319993
-0.04324 -0.01716 -0.063549995
0.063689999 0.017480001 -0.042950004
0.076889999 0.017659999 -0.0007700026
0.038830001 -0.082220003 0.41051
0.02778 0.017960001 -0.071510017
-0.072779998 -0.017209999 -0.024910003
0.06876 0.017519999 -0.034280002
0.072190002 0.017440001 0.026629984
0.01154 -0.082209997 0.42102
-0.071359999 -0.10285 0.23782
-0.071520001 -0.10062 0.27278
-0.020439999 0.017419999 -0.074110001
0.065870002 -0.017309999 -0.03967002
0.062040001 0.0176 0.045540005
0.03418 0.0175 0.069429994
0.076109998 0.01737 -0.010969996
-0.01246 -0.096419998 0.14767
0.023530001 -0.017379999 0.082729995
0.058030002 -0.017580001 -0.05054
0.071630001 -0.081900001 0.34783
0.03912 0.01774 -0.066130012
-0.049959999 -0.058249999 0.11459999
0.070540003 0.017480001 -0.030450016
0.05477 0.017650001 0.054109991
-0.05807 -0.017100001 -0.050370008
-0.01474 0.10683 0.16495
-0.071149997 -0.041979998 0.052359998
0.0115 0.01812 -0.075989991
-0.072849996 -0.073629998 0.25551999
-0.072279997 -0.073629998 0.33552998
-0.071829997 -0.090879999 0.30535001
0.02891 0.017680001 0.074389994
-0.074359998 0.041889999 0.1353
-0.071620002 -0.090829998 0.33552
0.068870001 -0.082039997 0.37101001
0.019540001 0.052030001 0.15669
0.020749999 0.017340001 0.15663999
0.0027099999 -0.081730001 0.42184001
0.04837 -0.064999998 0.27485001
0.00764 -0.081840001 0.42146999
0.07542 0.017729999 0.015170008
0.06318 -0.080289997 0.26538998
-0.076909997 -0.01497 0.0093799829
0.063840002 0.01767 0.043089986
0.067149997 -0.082230002 0.37579
-0.06126 -0.01712 -0.046440005
-0.04916 0.1095 0.17117
-0.016140001 0.10542 0.16174999
-0.071699999 0.046739999 0.020060003
0.062320001 -0.081940003 0.38593999
0.027170001 -0.082379997 0.41661999
0.064599998 -0.082149997 0.38145
-0.056129999 0.063000001 0.38661
-0.072659999 0.070670001 0.33271998
-0.072630003 -0.073629998 0.28551999
-0.073229998 0.017419999 -0.023570001
0.02232 -0.082249999 0.41845
-0.071840003 -0.082209997 0.35060999
-0.071050003 -0.064999998 0.31108999
-0.073270001 -0.064999998 0.20781
-0.071790002 -0.064999998 0.27666
-0.072530001 -0.064999998 0.24224
0.076870002 0.01764 0.0037599802
0.02056 0.018540001 0.093699992
0.067890003 -0.0605 -0.013300002
0.02335 0.01795 -0.073190004
-0.05424 -0.057 0.053269982
0.0309 0.017969999 -0.070309997
-0.053229999 -0.061500002 -0.043310016
-0.049520001 -0.11471 0.19058999
-0.076339997 -0.00351 0.14624
-0.076329999 -0.01053 0.11278999
-0.07632 -0.024569999 0.045899987
-0.07632 -0.017550001 0.079349995
0.01091 -0.064999998 0.22352999
0.01038 -0.064999998 0.25761998
-0.076250002 0.026079999 0.047320008
-0.076650001 0.0087000001 0.076619983
-0.076389998 0.0086899996 0.11247
-0.076459996 -0.0070199999 0.1116
-0.076449998 -0.021059999 0.044699997
-0.076710001 -0.0070199999 0.075749993
-0.067100003 -0.081349999 0.37573999
0.026280001 -0.081739999 0.20003
-0.071079999 0.043000001 0.10145999
-0.0087400004 -0.08354 0.13609
0.069990002 0.098820001 0.33493
0.067129999 0.097609997 0.30107
-0.07243 -0.067919999 0.13797
0.070110001 -0.081359997 0.36567
-0.073890001 0.068659998 0.16997999
0.059840001 -0.11202 0.33526999
0.058290001 -0.11074 0.30153
-0.01229 -0.064999998 0.25909001
0.021400001 0.018300001 0.0889
-0.075929999 0.035009999 0.049549997
-0.075669996 0.035470001 0.083319992
-0.076070003 0.017619999 0.11469999
0.00139 -0.0605 -0.069660008
-0.019440001 0.1175 0.34625998
0.01004 0.1175 0.3231
-0.049380001 0.1175 0.29104999
0.039749999 0.1175 0.33912998
-0.049150001 0.1175 0.33023
0.0065600001 0.1175 0.28367001
0.03627 0.1175 0.29969999
-0.01967 0.1175 0.30708
-0.076090001 0.03043 0.048949987
-0.076159999 0.021740001 0.081530005
-0.076300003 0.0043500001 0.14668
-0.076229997 0.01304 0.11409999
-0.034680001 -0.0090100002 0.1926
-0.061620001 0.02502 0.18223999
-0.033629999 0.03892 0.19487999
-0.058109999 0.063000001 0.31531999
-0.069459997 -0.081670001 0.36848
0.070880003 0.083499998 0.33640999
0.056460001 0.083499998 0.24225999
0.028000001 -0.081739999 0.20356999
0.0093299998 -0.10653 0.17285
-0.07519 0.037829999 0.13831
0.032869998 -0.0605 -0.061060011
0.064900003 -0.064300001 0.32207999
-0.04919 -0.11748 0.29466999
0.01575 -0.10038 0.17683999
0.051290002 0.084639996 0.4003
-0.050269999 -0.11746 0.29663
0.0396 -0.11749 0.33985999
-0.01956 -0.11749 0.34700999
0.0096399998 -0.11748 0.32545
-0.02031 -0.11747 0.31103998
-0.049509998 -0.11748 0.3326
-0.0195 -0.11749 0.30956998
-0.018959999 -0.1175 0.30858999
-0.048379999 -0.1175 0.29319999
0.039870001 -0.1175 0.33936998
0.01045 -0.1175 0.32398
-0.04865 -0.11749 0.29369
0.01018 -0.11749 0.32446998
-0.01977 -0.11748 0.31005999
-0.049309999 -0.11366 0.18473999
-0.06498 0.11734 0.33837998
-0.064879999 0.11747 0.30522001
-0.01257 -0.056049999 0.11521
-0.07502 -0.042970002 0.13776
-0.01709 -0.10289 0.15620999
-0.04992 -0.10517 0.16004999
-0.018759999 -0.064999998 0.25933
-0.024730001 -0.064999998 0.22674999
-0.073689997 0.07367 0.17424999
0.067469999 -0.072499998 0.29607999
-0.043419998 -0.055939998 0.11521
-0.061099999 0.039779998 0.18302999
0.071170002 -0.081569999 0.35988
-0.02533 -0.064999998 0.26218
-0.068949997 -0.061000001 0.35692999
0.019339999 -0.076130003 0.17095999
-0.049940001 -0.10364 0.15728
0.062579997 0.097000003 0.26797998
-0.062120002 -0.02702 0.18005
-0.0352 -0.042339999 0.19111
-0.01709 -0.10213 0.15482
-0.04995 -0.10287 0.15589999
-0.066090003 0.11612 0.30579001
-0.06538 0.11689 0.33857
-0.064520001 0.11739 0.33859
0.019400001 0.045899998 0.12098999
-0.074150003 -0.060649998 0.14327
-0.073150001 -0.08196 0.16801
-0.063259996 0.084770001 0.38409999
-0.071390003 0.099529997 0.33436
-0.072049998 0.10011 0.23657998
-0.071829997 0.099919997 0.26916999
-0.071610004 0.099720001 0.30175999
-0.072279997 0.071970001 0.14056
-0.052700002 -0.11737 0.38146999
-0.065690003 0.11657 0.30559999
0.02324 -0.081019998 0.19193999
-0.073639996 0.042970002 0.13790999
-0.065870002 0.11585 0.33886001
-0.067550004 0.11299 0.30664
0.00321 -0.064960003 0.22619
-0.059190001 0.068980001 0.20363
-0.03018 0.069449998 0.21795
-0.00047999999 0.084689997 0.42205998
0.06679 -0.061000001 0.018660009
-0.01114 -0.09804 0.14908999
-0.043359999 -0.099689998 0.15121999
0.06684 0.084710002 0.37641001
-0.01953 -0.1175 0.29308999
-0.01619 0.1175 0.39168
-0.061590001 -0.042339999 0.17969999
0.02445 -0.081029996 0.19568999
-0.00063999998 -0.064939998 0.22751999
0.0065299999 -0.06498 0.25895
0.017759999 0.084689997 0.4197
0.065459996 -0.10271 0.30596
0.069159999 -0.10105 0.33787
0.054310001 0.11451 0.30083999
0.057300001 0.11438 0.33284
-0.06707 0.11403 0.30636001
0.039969999 0.07 0.24142
0.02045 -0.078539997 0.17897999
0.067000002 0.098229997 0.30008
-0.073789999 0.0713 0.17172
0.03018 -0.08072 0.20697999
-0.01025 -0.073009998 0.12783
-0.06978 0.050039999 0.068849981
0.01115 -0.1175 0.39445001
-0.04301 0.07 0.23276
0.01534 -0.0528 0.17151
0.03551 -0.064999998 0.23411
0.018580001 -0.064999998 0.26115
0.0513 0.07 0.28902999
0.060690001 0.084770001 0.38874
-0.065930001 -0.11636 0.30539998
-0.065229997 -0.1171 0.33723998
-0.065240003 -0.11734 0.30535999
-0.065559998 0.1175 0.23525999
-0.01764 0.1175 0.24000999
-0.064680003 0.1175 0.26710999
-0.065569997 -0.11662 0.33726001
-0.066270001 -0.11588 0.30541998
0.064340003 -0.10706 0.33568001
-0.069849998 0.08478 0.36721998
-0.076820001 0.015900001 0.018139988
-0.072400004 0.044819999 0.079229981
-0.073119998 0.0436 0.047450006
0.06983 -0.099919997 0.33798
0.067479998 -0.099289998 0.30627999
-0.0528 0.1175 0.37290001
-0.030859999 0.1175 0.39589998
-0.00152 0.1175 0.38745999
-0.00116 -0.061500002 -0.06852001
0.018689999 -0.061919998 0.14045
-0.00089000002 0.059999999 0.065160006
0.067769997 0.063960001 0.33688
0.065339997 -0.080289997 0.27744001
0.032930002 -0.08072 0.21077999
0.066799998 -0.10043 0.30618
0.060219999 -0.10906 0.30484998
0.060479999 -0.11146 0.33638
0.04975 -0.11739 0.28906
0.050730001 0.07 0.26651999
-0.034419999 0.00297 0.19317
-0.034949999 -0.021 0.19203
-0.06188 0.01304 0.18167
-0.033890001 0.026939999 0.19430999
-0.046100002 0.084710002 0.40533
0.066890001 -0.09606 0.29971999
0.069530003 -0.098190002 0.33085999
0.071850002 0.084009998 0.34915
-0.04659 0.10378 0.15746999
-0.01528 0.10352 0.15719
0.036660001 0.059999999 -0.052520007
-0.071850002 0.04197 0.047729999
0.061840001 0.10697 0.30412
0.066600002 0.10418 0.33491999
0.06989 0.097000003 0.33085999
0.067100003 0.097000003 0.29971001
-0.071560003 0.04197 0.078929991
-0.069849998 0.041999999 0.047729999
0.01302 -0.10253 0.17502999
-0.072849996 0.041949999 0.047719985
-0.072559997 0.041949999 0.078929991
-0.065049998 0.11808 0.26611
-0.065690003 0.11769 0.23492
-0.060199998 0.065609999 0.19562
-0.032820001 0.067230001 0.21043999
0.066260003 -0.10486 0.33533999
0.062150002 -0.10686 0.30449998
0.028689999 0.059999999 0.05745998
-0.047449999 0.10569 0.16204
-0.0065100002 -0.064960003 0.22718
0.026969999 -0.11713 0.22458999
0.054269999 -0.11492 0.30605999
0.058499999 -0.11342 0.33677998
-0.031920001 0.048980001 0.19604999
-0.06036 0.048050001 0.18369
-0.064790003 -0.1175 0.23900999
-0.0048199999 -0.1175 0.30078998
-0.063660003 -0.1175 0.27000999
-0.034809999 -0.1175 0.26989999
0.020090001 -0.064999998 0.26278999
0.040029999 -0.064999998 0.23905
-0.073250003 -0.077129997 0.18032999
0.064400002 -0.080289997 0.27109998
0.067139998 0.099990003 0.30565
0.069990002 0.09962 0.33644998
-0.039650001 -0.0605 0.057419986
0.03317 0.07 0.26402
0.019780001 0.07 0.23624
-0.067050003 0.054049999 0.05241999
-0.066940002 0.054049999 0.083229989
0.063850001 0.10753 0.33478999
-0.03427 0.084569998 0.41343999
-0.027000001 0.084600002 0.41680998
0.038520001 -0.064999998 0.2374
0.06247 0.1092 0.33473
0.06047 0.10864 0.30405998
-0.03204 0.05497 0.19805999
-0.060219999 0.05483 0.1858
-0.066260003 0.11684 0.23468
-0.066780001 0.11553 0.26537001
-0.031920001 0.052170001 0.19708
0.067019999 -0.087499999 0.29745999
0.069930002 -0.072499998 0.32409
-0.02503 0.069949999 0.23877999
-0.074919999 0.041639999 0.13733999
-0.071110003 -0.041979998 0.091910005
-0.075049996 -0.034680001 0.17416999
-0.03015 0.069760002 0.2201
-0.059110001 0.069920003 0.21009
-0.060230002 -0.062290002 0.18728
-0.033009999 -0.063560002 0.20128
-0.069559999 0.10796 0.30554998
-0.06961 0.10673 0.33616
-0.06899 0.10945 0.30568999
-0.060219999 0.05164 0.18476999
0.070249997 0.08495 0.36601999
-0.069320001 0.10748 0.33623999
-0.068700001 0.1102 0.30576998
-0.070349999 0.10528 0.30572
-0.06016 0.053440001 0.18530999
-0.031860001 0.05077 0.19658999
0.02173 -0.079669997 0.18561
-0.067500003 0.084890001 0.37518001
-0.064929999 0.11789 0.26644
-0.0052200002 0.1175 0.40318
-0.02716 0.1175 0.38018
0.024119999 0.1175 0.39473
-0.065930001 -0.11696 0.26538998
-0.066650003 -0.11622 0.23488998
-0.069260001 -0.10693 0.33495998
-0.053800002 0.1175 0.22848
-0.052919999 0.1175 0.26032999
-0.0058800001 0.1175 0.23322999
-0.0294 0.1175 0.24677999
-0.070739999 0.10394 0.30581
-0.07 0.10539 0.33625001
-0.021269999 0.097750001 0.14912999
-0.051739998 0.097240001 0.14910999
0.067139998 -0.10378 0.33557001
0.064779997 -0.10361 0.30519998
-0.066849999 -0.11538 0.26530999
-0.067309998 -0.11459 0.26526999
-0.067110002 -0.11544 0.23484999
-0.072109997 0.070540003 0.33476999
-0.01743 0.084490001 0.41995001
0.0077 -0.061000001 0.41913
-0.066200003 0.11638 0.26561999
-0.068839997 -0.10917 0.30500001
-0.068259999 -0.11289 0.23505999
-0.064730003 0.11746 0.30381998
-0.06927 0.10972 0.26510999
-0.07367 -0.04211 0.13792999
-0.068499997 0.11252 0.23525999
-0.067529999 0.11409 0.26556998
-0.071709998 0.08563 0.35501999
0.071699999 0.084710002 0.35554001
-0.067749999 0.11396 0.23506999
0.017209999 -0.064259999 0.13918999
-0.057739999 0.08495 0.39337
-0.07096 -0.10207 0.30550998
-0.02998 -0.0605 -0.065780014
-0.06769 -0.061000001 -0.015650004
-0.071290001 0.084820002 0.36124
0.06628 0.064000003 0.36721998
-0.068829998 -0.11162 0.23515999
-0.067890003 -0.11332 0.26537001
-0.00038000001 -0.061000001 -0.069450021
-0.074040003 -0.01476 0.018099993
0.058970001 0.11282 0.33381
0.059300002 0.10985 0.30374998
0.02031 0.1175 0.24054
0.00124 0.1175 0.26394999
-0.026729999 0.1175 0.26763999
-0.072719999 0.093630001 0.21250999
-0.072740003 0.08687 0.24192999
-0.072789997 0.073380001 0.30076998
-0.07277 0.080119997 0.27135
-0.071379997 0.099529997 0.33557001
-0.071570002 0.099720001 0.30539
0.04321 0.084140003 0.40792
-0.071290001 -0.099440001 0.33552
-0.071500003 -0.099480003 0.30535001
-0.070440002 -0.1066 0.23515999
0.066019997 -0.079999998 0.28276998
-0.072020002 -0.04614 0.074860007
-0.052900001 0.1175 0.38049001
-0.0096300002 0.084310003 0.42157999
-0.070689999 -0.10336 0.30559
-0.07102 -0.10073 0.33559999
0.05934 -0.064999998 0.28281999
-0.01543 -0.1033 0.15683
-0.02887 -0.061000001 -0.063329995
0.068159997 0.10214 0.3353
0.066529997 0.10083 0.30526
-0.071290001 0.10142 0.30552998
0.0082599996 0.084959999 0.42170998
-0.071149997 0.10227 0.30559999
-0.07124 0.10038 0.33563998
0.02844 -0.061500002 -0.062510014
-0.067359999 -0.061500002 -0.015469998
-0.069119997 -0.11008 0.26508999
-0.03314 -0.05948 0.19537999
-0.060389999 -0.058340002 0.18273999
-0.07243 -0.095830001 0.19506
0.060139999 0.11161 0.33412001
-0.068170004 0.11027 0.33710998
0.046530001 0.11722 0.37764999
-0.070660003 0.10308 0.33561999
-0.07096 0.10317 0.30559999
-0.076959997 0.0087000001 0.031819999
-0.07316 0.080130003 0.21615
-0.052949999 0.084849998 0.39912999
0.06391 -0.1047 0.30495998
-0.070139997 0.10753 0.26488999
-0.069370002 0.11034 0.23503999
-0.02169 -0.061000001 0.41587999
-0.066880003 -0.11458 0.30445001
-0.067400001 -0.11273 0.33436999
-0.069739997 -0.10846 0.26494998
-0.069449998 -0.11 0.23502
-0.076849997 -0.01497 0.018110007
0.02067 0.0093200002 0.10936999
0.01224 0.083499998 0.14826
-0.060839999 0.04716 0.18343
-0.033369999 0.046300001 0.19526999
0.023320001 0.080789998 0.18979999
-0.070519999 0.10708 0.23514
-0.02857 -0.063419998 0.28463
-0.071730003 -0.086520001 0.34307
0.071309999 0.084859997 0.36063001
-0.075060003 -0.041650001 0.13776
0.02795 0.07 0.2209
-0.073799998 0.067919999 0.14333999
-0.070239998 -0.10676 0.26501998
-0.070929997 -0.1049 0.23523
-0.032990001 -0.064060003 0.20213999
-0.06016 -0.063780002 0.18987
0.064970002 0.10288 0.30487999
-0.061080001 0.056299999 0.18637
-0.034630001 0.059360001 0.19975999
-0.049090002 0.1175 0.34002998
-0.019619999 0.1175 0.31687
0.01021 0.1175 0.35249001
-0.019379999 0.1175 0.35604998
0.01009 0.1175 0.33289999
-0.0195 0.1175 0.33645999
-0.048969999 0.1175 0.35962
0.039799999 0.1175 0.34893
-0.049210001 0.1175 0.32043999
0.0023099999 0.1175 0.37417001
-0.04933 0.1175 0.30085
-0.019370001 -0.1175 0.35600999
0.039790001 -0.1175 0.34884998
0.01021 -0.1175 0.35242999
-0.048950002 -0.1175 0.35957998
0.071670003 -0.0605 -0.011530012
0.0093299998 0.059999999 -0.063549995
-0.074759997 0.045290001 0.1628
-0.039949998 0.084720001 0.41016999
-0.070720002 0.10591 0.26493999
-0.071089998 0.10546 0.23519
-0.07683 -0.01404 0.024389982
-0.02087 0.098010004 0.14914
-0.050560001 0.09804 0.14914
0.01987 0.032269999 0.12103999
-0.070440002 0.10385 0.33583
0.068920001 0.084959999 0.37081999
0.020679999 -0.0092799999 0.10921
0.056189999 0.059999999 -0.030100018
-0.069810003 -0.10646 0.30526999
-0.068379998 -0.11003 0.33464
-0.063840002 0.069870003 0.30706
-0.075089999 0.03283 0.17671999
-0.06213 -0.017659999 0.1804
0.021500001 -0.064999998 0.26523998
0.044259999 -0.064999998 0.24638999
0.059579998 -0.10962 0.30373999
0.019929999 -0.030549999 0.11962999
-0.02255 0.084720001 0.41858
-0.042210001 -0.11748 0.32721001
-0.01226 -0.11749 0.34162
0.0023399999 -0.11749 0.33083999
-0.057569999 -0.11746 0.30201998
-0.056809999 -0.11748 0.33798999
-0.02761 -0.11747 0.31643
-0.05914 0.06961 0.20794
-0.073150001 -0.0788 0.18549
-0.00587 0.084339999 0.42201999
-0.044780001 -0.10083 0.15279
-0.01537 -0.10145 0.15379
0.068769999 0.1013 0.33568999
0.0066900002 -0.1175 0.27691001
0.036669999 -0.1175 0.30779999
0.03084 -0.1175 0.26016
-0.0233 -0.1175 0.24601999
0.064180002 0.07 0.26958001
0.01857 -0.083159998 0.16223
-0.033799998 -0.054359999 0.19214
-0.060729999 -0.054030001 0.18043
-0.065690003 0.084490001 0.37981999
-0.0087400004 -0.074770004 0.12928
-0.03277 0.068219997 0.21250999
-0.06005 0.068570003 0.20182
-0.073430002 0.069080003 0.14215
-0.070029996 0.049819998 0.022740006
-0.033769999 0.057890002 0.19919999
0.037459999 0.11739 0.24134
0.064350002 0.08461 0.38273001
0.069480002 0.083499998 0.32082999
-0.0086899996 -0.071429998 0.12637
0.02462 0.084590003 0.41793999
-0.04614 -0.1175 0.36469999
0.04019 -0.1175 0.34959
-0.01736 -0.1175 0.35966
0.01141 -0.1175 0.35461998
0.00611 -0.1175 0.37316999
-0.060260002 -0.061250001 0.18562999
-0.033089999 -0.060449999 0.19633999
0.06476 -0.064999998 0.29589
0.071269996 0.083470002 0.34096
-0.073200002 -0.078120001 0.18205999
0.02801 0.083470002 0.20248999
-0.01299 -0.11735 0.21983999
0.01554 -0.11745 0.22578
0.042849999 -0.064999998 0.24394999
-0.076049998 0.01036 0.15271999
-0.075470001 0.03108 0.13225
-0.069399998 -0.064999998 0.23407
-0.063749999 -0.064999998 0.29203999
-0.066569999 -0.064999998 0.26304999
-0.072229996 -0.064999998 0.20509
-0.060180001 -0.063280001 0.18900999
-0.071079999 -0.043000001 0.10394999
-0.02744 0.069849998 0.26622999
-0.01358 0.069949999 0.24065
-0.060109999 -0.064570002 0.19259
-0.03297 -0.064319998 0.20304999
0.056650002 0.084799998 0.39482999
-0.071520001 0.10332 0.23470999
0.062309999 0.098240003 0.266
0.057640001 0.1114 0.30278
-0.061859999 0.064000003 0.38198999
0.019239999 -0.064999998 0.21853
-0.068190001 0.052790001 0.022610009
-0.03376 -0.055330001 0.1926
-0.060600001 -0.056949999 0.18180999
-0.075460002 -0.031319998 0.13285999
-0.07604 -0.01044 0.15292999
-0.032889999 0.047189999 0.19553
-0.045219999 -0.098999999 0.15032999
0.067809999 -0.10287 0.33633998
-0.050949998 0.097769998 0.14912999
-0.055980001 -0.0605 -0.041920006
-0.00129 0.069839999 0.22373
-0.02045 0.098549999 0.14983
-0.04927 0.099650003 0.15121999
-0.03252 0.1175 0.40039998
-0.072760001 -0.064999998 0.24502999
-0.071280003 -0.064999998 0.31388
-0.072480001 -0.064999998 0.28503001
0.055610001 -0.11353 0.30454999
-0.048670001 -0.1175 0.28544998
0.01017 -0.1175 0.31623
-0.019819999 -0.1175 0.28534001
