# .PCD v0.7 - Point Cloud Data file format
VERSION 0.7
FIELDS x y z
SIZE 4 4 4
TYPE F F F
COUNT 1 1 1
WIDTH 631
HEIGHT 1
VIEWPOINT 0 0 0 1 0 0 0
POINTS 631
DATA ascii
-0.0049999268 -0.01997 0.0012198802
-0.0049999054 -0.02 9.9901808e-05
-0.00086998515 -0.02 9.998132e-05
-0.00086001947 -0.019929999 0.0018699475
-0.0049999487 -0.01987 0.0023398588
-0.0049999701 -0.019719999 0.0034498374
-0.00087006215 -0.0196 0.0040999041
-0.004999991 -0.0195 0.0045498163
-0.005000012 -0.01922 0.0056397952
-0.00087010395 -0.019029999 0.0062698624
-0.0050000325 -0.01888 0.0067097745
-0.0050000525 -0.018479999 0.0077497545
-0.00087013241 -0.018479999 0.0077498341
-0.0050000725 -0.01802 0.0087797344
-0.00087016361 -0.017729999 0.0093698027
-0.0050000916 -0.0175 0.0097697163
-0.0050001102 -0.016930001 0.010739697
-0.00087018998 -0.016930001 0.010739776
-0.0050001279 -0.016310001 0.01166968
-0.00087021827 -0.015930001 0.012209749
-0.0050001526 -0.01535 0.012929656
-0.00087025121 -0.01447 0.013919715
-0.0050001838 -0.01382 0.014569623
-0.00087028067 -0.01283 0.015449686
-0.0050002122 -0.01211 0.016029594
-0.00087030645 -0.01103 0.01678966
-0.0050002313 -0.01064 0.017029576
-0.0050002425 -0.0096699996 0.017599564
-0.00087032822 -0.0091000004 0.017919639
-0.0050002523 -0.00868 0.018119555
-0.0050002611 -0.00765 0.018579546
-0.00087034574 -0.0070400001 0.01882962
-0.005000269 -0.00661 0.018979538
-0.0050002756 -0.0055399998 0.019319531
-0.00087035517 -0.0055399998 0.019319611
-0.0050002825 -0.0040000002 0.019699523
-0.00087036326 -0.0038099999 0.019739604
-0.0025003385 -0.00050000002 0.020089565
-0.00087036769 -0.0022400001 0.019969599
-0.00087037019 -0.00053000002 0.020099595
-0.0025003385 0.00050000002 0.020089565
-0.0050002881 -0.0022400001 0.019969519
-0.00085036852 0.00211 0.019989599
-0.0050002905 -0.00050000002 0.020089516
-0.0050002881 0.00223 0.019979518
-0.0045003002 0.00050000002 0.020089526
-0.0050002835 0.0038099999 0.019739524
-0.00087036251 0.0040000002 0.019699603
-0.0050002756 0.0055399998 0.019319531
-0.00087035151 0.0061699999 0.019129615
-0.005000269 0.00661 0.018979538
-0.0050002611 0.00765 0.018579546
-0.00087034091 0.00765 0.018579626
-0.0050002523 0.00868 0.018119555
-0.00087032648 0.0092700003 0.01782964
-0.0050002425 0.0096699996 0.017599564
-0.0050002313 0.01064 0.017029576
-0.00087031111 0.01064 0.017029656
-0.0050002192 0.01157 0.016409587
-0.00087029184 0.01211 0.016029675
-0.0050002011 0.01283 0.015449607
-0.00087026373 0.01382 0.014569703
-0.0050001717 0.01447 0.013919636
-0.00087023218 0.01535 0.012929735
-0.0050001387 0.015930001 0.01220967
-0.00087019749 0.016690001 0.011129769
-0.0050001102 0.016930001 0.010739697
-0.0050000916 0.0175 0.0097697163
-0.00087016018 0.017820001 0.0091898059
-0.0050000725 0.01802 0.0087797344
-0.0050000525 0.018479999 0.0077497545
-0.00087013241 0.018479999 0.0077498341
-0.0050000325 0.01888 0.0067097745
-0.00087010028 0.019090001 0.0060798666
-0.005000012 0.01922 0.0056397952
-0.004999991 0.0195 0.0045498163
-0.00086006045 0.019619999 0.0039999066
-0.0049999701 0.019719999 0.0034498374
-0.00086001947 0.019929999 0.0018699475
-0.0049999487 0.01987 0.0023398588
-0.0049999268 0.01997 0.0012198802
-0.00086998515 0.02 9.998132e-05
-0.0049999054 0.02 9.9901808e-05
8.6635348e-09 0.019479999 -0.00044999132
-3.3499003e-08 0.01942 0.0017399665
-7.5083967e-08 0.01912 0.0038999249
-1.3572873e-07 0.018209999 0.0070498646
-1.7423332e-07 0.01732 0.0090498263
-2.1042764e-07 0.016209999 0.010929789
-2.5432288e-07 0.01446 0.013209745
-3.0437886e-07 0.01162 0.015809696
-3.3056202e-07 0.0094299996 0.017169671
-3.4442365e-07 0.0079600001 0.017889656
-3.6694885e-07 0.0047200001 0.019059634
-3.7734509e-07 0.00095000002 0.019599622
-3.7599742e-07 -0.00174 0.019529624
-3.6540865e-07 -0.0050400002 0.018979635
-3.4442365e-07 -0.0079600001 0.017889656
-3.1400504e-07 -0.01083 0.016309686
-2.8031349e-07 -0.01311 0.01455972
-2.2563695e-07 -0.01571 0.011719774
-1.7423332e-07 -0.01732 0.0090498263
-1.3572873e-07 -0.018209999 0.0070498646
-7.5083967e-08 -0.01912 0.0038999249
-1.7712116e-08 -0.01946 0.00091998233
-0.0049998839 0.01997 -0.0010200766
-0.00085995131 0.019929999 -0.0016699844
-0.0049998625 0.01987 -0.0021400549
-0.0049998411 0.019719999 -0.0032500336
-0.00086990814 0.0196 -0.0038999417
-0.0049998197 0.0195 -0.0043500126
-0.0049997987 0.01922 -0.0054399916
-0.00086986634 0.019029999 -0.0060699
-0.0049997782 0.01888 -0.0065099713
-0.0049997582 0.018479999 -0.0075499513
-0.00086982612 0.01822 -0.0081598591
-0.0049997382 0.01802 -0.0085799312
-0.0049997191 0.0175 -0.0095699113
-0.00086978782 0.01718 -0.010149822
-0.0049997005 0.016930001 -0.010539893
-0.0049996828 0.016310001 -0.011469875
-0.00086975202 0.015930001 -0.012009786
-0.0049996586 0.01535 -0.012729851
-0.00086971908 0.01447 -0.013719752
-0.0049996269 0.01382 -0.014369819
-0.00086968963 0.01283 -0.015249724
-0.004999599 0.01211 -0.015829792
-0.00086966384 0.01103 -0.016589697
-0.0049995794 0.01064 -0.016829772
-0.0049995687 0.0096699996 -0.017399762
-0.00086964207 0.0091000004 -0.017719677
-0.0049995584 0.00868 -0.017919753
-0.0049995496 0.00765 -0.018379742
-0.00086962455 0.0070400001 -0.018629657
-0.0049995421 0.00661 -0.018779736
-0.0049995356 0.0055399998 -0.019119728
-0.00086961512 0.0055399998 -0.019119648
-0.00499953 0.0044499999 -0.019399723
-0.00086960703 0.0038099999 -0.019539641
-0.0049995258 0.0033499999 -0.019619718
-0.0049995231 0.0022400001 -0.019769717
-0.00086960127 0.00158 -0.019839635
-0.0049995207 0.00112 -0.019869715
-0.0049995203 0 -0.019899713
-0.0008696001 0 -0.019899633
-0.0049995207 -0.00112 -0.019869715
-0.00086960144 -0.00178 -0.019829635
-0.0049995231 -0.0022400001 -0.019769717
-0.0049995258 -0.0033499999 -0.019619718
-0.00086960552 -0.0033499999 -0.019619638
-0.00499953 -0.0044499999 -0.019399723
-0.00086961262 -0.0050900001 -0.019249646
-0.0049995356 -0.0055399998 -0.019119728
-0.0049995421 -0.00661 -0.018779736
-0.00086962589 -0.0072300001 -0.018559659
-0.0049995496 -0.00765 -0.018379742
-0.0049995584 -0.00868 -0.017919753
-0.00086964382 -0.0092700003 -0.017629677
-0.0049995687 -0.0096699996 -0.017399762
-0.0049995794 -0.01064 -0.016829772
-0.00086966594 -0.0112 -0.016479701
-0.0049995915 -0.01157 -0.016209783
-0.0049996101 -0.01283 -0.015249803
-0.00086969213 -0.01298 -0.015119725
-0.0049996395 -0.01447 -0.013719832
-0.00086972199 -0.01461 -0.013569755
-0.0049996721 -0.015930001 -0.012009865
-0.00086975511 -0.01605 -0.011849789
-0.0049997005 -0.016930001 -0.010539893
-0.00086979108 -0.017279999 -0.0099798245
-0.0049997191 -0.0175 -0.0095699113
-0.0049997382 -0.01802 -0.0085799312
-0.00086982962 -0.018300001 -0.0079798633
-0.0049997582 -0.018479999 -0.0075499513
-0.0049997782 -0.01888 -0.0065099713
-0.00086987001 -0.019090001 -0.0058799037
-0.0049997987 -0.01922 -0.0054399916
-0.0049998197 -0.0195 -0.0043500126
-0.00085991027 -0.019619999 -0.0037999435
-0.0049998411 -0.019719999 -0.0032500336
-0.00085995131 -0.019929999 -0.0016699844
-0.0049998625 -0.01987 -0.0021400549
-0.0049998839 -0.01997 -0.0010200766
2.9648541e-08 -0.01942 -0.0015399703
7.1233508e-08 -0.01912 -0.0036999288
1.3187825e-07 -0.018209999 -0.0068498682
1.7038286e-07 -0.01732 -0.0088498294
2.0657718e-07 -0.016209999 -0.010729793
2.5047243e-07 -0.01446 -0.013009749
3.005284e-07 -0.01162 -0.015609699
3.315246e-07 -0.0089499997 -0.017219668
3.4865914e-07 -0.0069499998 -0.018109651
3.6617877e-07 -0.0038000001 -0.019019634
3.7310957e-07 -0.00055 -0.019379627
3.7195443e-07 0.00164 -0.019319627
3.6617877e-07 0.0038000001 -0.019019634
3.4865914e-07 0.0069499998 -0.018109651
3.315246e-07 0.0089499997 -0.017219668
3.1015455e-07 0.01083 -0.016109688
2.7646303e-07 0.01311 -0.014359724
2.2178651e-07 0.01571 -0.011519779
1.7038286e-07 0.01732 -0.0088498294
1.3187825e-07 0.018209999 -0.0068498682
9.1833471e-08 0.01887 -0.0047699083
5.0441024e-08 0.019300001 -0.0026199494
-2.587509e-07 0.00065 0.013439741
-2.0214915e-07 0.00165 0.010499798
-2.6337148e-07 0.00125 0.013679736
1.7211556e-07 -0.01114 -0.0089398278
1.2282968e-07 -0.0082099997 -0.0063798772
7.8934434e-08 -0.0096000005 -0.0040999209
-2.4488926e-07 0.01262 0.012719755
-2.3661077e-07 0.01296 0.012289763
1.7346323e-07 -0.01168 -0.0090098269
-2.5143504e-07 0.01219 0.013059748
1.1031567e-07 0.0087200003 -0.0057298895
1.7211556e-07 0.01114 -0.0089398278
8.2592372e-08 0.0095300004 -0.0042899176
-2.4488926e-07 -0.01262 0.012719755
-2.5143504e-07 -0.01219 0.013059748
1.7346323e-07 0.01168 -0.0090098269
-2.3661077e-07 -0.01296 0.012289763
1.7750621e-07 -0.01219 -0.0092198225
-2.0311177e-07 -0.00135 0.010549797
-2.6337148e-07 -0.00125 0.013679736
-2.7107239e-07 -0.00177 0.014079729
-1.8482208e-07 -0.0043799998 0.0095998161
1.7750621e-07 0.01219 -0.0092198225
-2.7107239e-07 0.00177 0.014079729
-1.8482208e-07 0.0043799998 0.0095998161
-2.267921e-07 -0.00911 0.011779773
-2.810836e-07 -0.00217 0.014599719
-2.3661077e-07 -0.0093200002 0.012289763
3.7349462e-08 0.01026 -0.0019399626
3.7541984e-08 -0.01029 -0.0019499625
-2.810836e-07 0.00217 0.014599719
-2.267921e-07 0.00911 0.011779773
-2.5547803e-07 0.01168 0.013269745
-2.5547803e-07 -0.01168 0.013269745
-2.9263498e-07 -0.00241 0.015199708
-2.9263498e-07 0.00241 0.015199708
-2.3661077e-07 0.0093200002 0.012289763
-9.818673e-09 -0.01045 0.00050999015
-2.568257e-07 0.01114 0.013339743
-2.568257e-07 -0.01114 0.013339743
-2.5547803e-07 0.01059 0.013269745
-9.818673e-09 0.01048 0.00050999015
-2.5547803e-07 -0.01059 0.013269745
2.5297524e-07 0.01114 -0.013139747
-2.5143504e-07 0.01009 0.013059748
-2.5143504e-07 -0.01009 0.013059748
-2.4488926e-07 0.0096500004 0.012719755
-5.6794288e-08 -0.0101 0.0029499433
2.5162757e-07 0.01059 -0.013069749
-2.4488926e-07 -0.0096500004 0.012719755
2.5162757e-07 0.01168 -0.013069749
-5.6794288e-08 0.0101 0.0029499433
2.5297524e-07 -0.01114 -0.013139747
2.5162757e-07 -0.01059 -0.013069749
2.5162757e-07 -0.01168 -0.013069749
2.4758458e-07 0.01009 -0.012859752
-3.0514897e-07 0.0024999999 0.015849695
-3.0514897e-07 -0.0024999999 0.015849695
2.4758458e-07 0.01219 -0.012859752
2.4758458e-07 -0.01219 -0.012859752
2.4758458e-07 -0.01009 -0.012859752
-8.6442832e-08 0.0095300004 0.0044899136
-8.6442832e-08 -0.0095300004 0.0044899136
2.410388e-07 0.0096500004 -0.012519759
-3.1766297e-07 0.00241 0.016499681
2.410388e-07 0.01262 -0.012519759
2.410388e-07 -0.0096500004 -0.012519759
-3.1766297e-07 -0.00241 0.016499681
-3.2921434e-07 0.00217 0.017099671
2.410388e-07 -0.01262 -0.012519759
2.3276031e-07 0.0093200002 -0.012089767
-3.2921434e-07 -0.00217 0.017099671
-3.3922552e-07 0.00177 0.01761966
2.3276031e-07 0.01296 -0.012089767
-3.3922552e-07 -0.00177 0.01761966
-3.4692647e-07 0.00125 0.018019654
2.3276031e-07 -0.0093200002 -0.012089767
2.3276031e-07 -0.01296 -0.012089767
-3.4692647e-07 -0.00125 0.018019654
-3.5154702e-07 0.00065 0.018259648
-3.5154702e-07 -0.00065 0.018259648
-3.5327969e-07 0 0.018349646
-1.1416614e-07 0.0087200003 0.0059298859
-1.7596602e-07 0.01114 0.0091398237
2.2294164e-07 0.01317 -0.011579777
-1.1416614e-07 -0.0087200003 0.0059298859
-1.7596602e-07 -0.01114 0.0091398237
-1.7731368e-07 0.01059 0.0092098229
2.2294164e-07 -0.01317 -0.011579777
-1.7731368e-07 0.01168 0.0092098229
-1.7731368e-07 -0.01168 0.0092098229
-1.7731368e-07 -0.01059 0.0092098229
-1.4978289e-07 0.0071 0.0077798502
-1.8135667e-07 0.01009 0.0094198184
-1.8135667e-07 0.01219 0.0094198184
-1.8135667e-07 -0.01219 0.0094198184
2.125454e-07 0.01324 -0.011039788
-1.4978289e-07 -0.0071 0.0077798502
-1.8135667e-07 -0.01009 0.0094198184
2.125454e-07 -0.01324 -0.011039788
2.0195664e-07 -0.01317 -0.010489798
2.0195664e-07 0.01317 -0.010489798
-1.8770993e-07 0.0096500004 0.0097498121
1.9983888e-07 0.00041000001 -0.0103798
-1.8770993e-07 0.01262 0.0097498121
-1.8770993e-07 -0.01262 0.0097498121
-1.8770993e-07 -0.0096500004 0.0097498121
1.9560338e-07 -0.0020399999 -0.010159804
-1.9618093e-07 0.0093200002 0.010189803
-1.9618093e-07 0.01296 0.010189803
-1.9618093e-07 -0.01296 0.010189803
-1.9618093e-07 -0.0093200002 0.010189803
1.92523e-07 0.00285 -0.009999807
1.9233049e-07 -0.01296 -0.0099898074
1.9233049e-07 0.01296 -0.0099898074
-2.0580708e-07 0.00911 0.010689794
1.8154918e-07 -0.0043899999 -0.009429818
2.2294164e-07 -0.00911 -0.011579777
-2.0580708e-07 0.01317 0.010689794
-2.0580708e-07 -0.01317 0.010689794
2.2294164e-07 0.00911 -0.011579777
1.8154918e-07 0.0043899999 -0.009429818
-2.0580708e-07 -0.00911 0.010689794
-2.1639585e-07 -0.0090399999 0.011239784
1.8385946e-07 -0.01262 -0.0095498161
1.8385946e-07 0.01262 -0.0095498161
2.125454e-07 -0.0090399999 -0.011039788
-2.1639585e-07 0.0090399999 0.011239784
2.125454e-07 0.0090399999 -0.011039788
-2.1639585e-07 0.01324 0.011239784
-2.1639585e-07 -0.01324 0.011239784
-2.267921e-07 0.01317 0.011779773
-2.267921e-07 -0.01317 0.011779773
2.0195664e-07 -0.00911 -0.010489798
1.6364456e-07 -0.00599 -0.0084998365
1.6595483e-07 0.0058300002 -0.0086198347
2.0195664e-07 0.00911 -0.010489798
1.9233049e-07 -0.0093200002 -0.0099898074
1.9233049e-07 0.0093200002 -0.0099898074
1.8385946e-07 -0.0096500004 -0.0095498161
1.4342963e-07 0.0072599999 -0.0074498565
1.8385946e-07 0.0096500004 -0.0095498161
1.7750621e-07 -0.01009 -0.0092198225
1.7750621e-07 0.01009 -0.0092198225
-2.570182e-07 0 0.013349743
1.7346323e-07 -0.01059 -0.0090098269
-2.587509e-07 -0.00065 0.013439741
1.7346323e-07 0.01059 -0.0090098269
-0.0050002085 0.0024999999 0.015849598
-0.0050001959 0.00241 0.015199612
-0.0050001848 0.00217 0.014599623
-0.0050001745 0.00177 0.014079633
-0.0050001671 0.00125 0.01367964
-0.0050001624 0.00065 0.013439645
-0.0050001605 0 0.013349647
-0.0050001624 -0.00065 0.013439645
-0.0050001671 -0.00125 0.01367964
-0.0050001745 -0.00177 0.014079633
-0.0050001848 -0.00217 0.014599623
-0.0050001959 -0.00241 0.015199612
-0.0050002085 -0.0024999999 0.015849598
-0.0049996912 0.01324 -0.011039884
-0.0049996804 0.01317 -0.011579873
-0.0049996707 0.01296 -0.012089863
-0.0049996623 0.01262 -0.012519855
-0.0049996558 0.01219 -0.012859848
-0.004999652 0.01168 -0.013069845
-0.0049996506 0.01114 -0.013139843
-0.004999652 0.01059 -0.013069845
-0.0049996558 0.01009 -0.012859848
-0.0049996623 0.0096500004 -0.012519855
-0.0049996707 0.0093200002 -0.012089863
-0.0049996804 0.00911 -0.011579873
-0.0049996912 0.0090399999 -0.011039884
-0.0049996912 -0.0090399999 -0.011039884
-0.0049996804 -0.00911 -0.011579873
-0.0049996707 -0.0093200002 -0.012089863
-0.0049996623 -0.0096500004 -0.012519855
-0.0049996558 -0.01009 -0.012859848
-0.004999652 -0.01059 -0.013069845
-0.0049996506 -0.01114 -0.013139843
-0.004999652 -0.01168 -0.013069845
-0.0049996558 -0.01219 -0.012859848
-0.0049996623 -0.01262 -0.012519855
-0.0049996707 -0.01296 -0.012089863
-0.0049996804 -0.01317 -0.011579873
-0.0049996912 -0.01324 -0.011039884
-0.00500012 -0.0090399999 0.011239688
-0.0050001093 -0.00911 0.010689698
-0.0050000995 -0.0093200002 0.010189707
-0.0050000912 -0.0096500004 0.0097497161
-0.0050000846 -0.01009 0.0094197225
-0.0050000809 -0.01059 0.0092097269
-0.0050000795 -0.01114 0.0091397278
-0.0050000809 -0.01168 0.0092097269
-0.0050000846 -0.01219 0.0094197225
-0.0050000912 -0.01262 0.0097497161
-0.0050000995 -0.01296 0.010189707
-0.0050001093 -0.01317 0.010689698
-0.00500012 -0.01324 0.011239688
-0.00500012 0.01324 0.011239688
-0.0050001093 0.01317 0.010689698
-0.0050000995 0.01296 0.010189707
-0.0050000912 0.01262 0.0097497161
-0.0050000846 0.01219 0.0094197225
-0.0050000809 0.01168 0.0092097269
-0.0050000795 0.01114 0.0091397278
-0.0050000809 0.01059 0.0092097269
-0.0050000846 0.01009 0.0094197225
-0.0050000912 0.0096500004 0.0097497161
-0.0050000995 0.0093200002 0.010189707
-0.0050001093 0.00911 0.010689698
-0.00500012 0.0090399999 0.011239688
-0.00049979985 -0.00039 -0.0098998183
-0.00049980311 -0.00189 -0.0097298222
-0.00049996848 0.0099299997 -0.0011399876
-0.00049999234 0.0099999998 9.9988443e-05
-0.0004998112 -0.0034 -0.0093098301
-0.00050993968 0.0096300002 -0.0026199592
-0.0004998208 -0.0045400001 -0.0088098394
-0.0004998314 -0.0055 -0.0082598496
-0.00049991859 0.0092399996 -0.0037299378
-0.00049984601 -0.0064900001 -0.0074998653
-0.00049989705 0.0087000001 -0.0048499163
-0.00049986067 -0.0073000002 -0.00673988
-0.00049987203 0.0078199999 -0.0061498913
-0.00049988413 -0.0082799997 -0.0055199037
-0.00049985625 0.0070699998 -0.0069698757
-0.00049991166 -0.0090899998 -0.004089931
-0.00049984024 0.0061400002 -0.0077998596
-0.00049993995 -0.0096300002 -0.0026199589
-0.00049982371 0.00483 -0.0086598424
-0.0004999683 -0.0099299997 -0.0011499876
-0.0004998112 0.0034 -0.0093098301
-0.00049999234 -0.0099999998 9.9988443e-05
-0.00049980311 0.00189 -0.0097298222
-0.00049980037 0.00078 -0.0098698195
-0.004999755 0.0062500001 -0.007719948
-0.004999741 0.0052200002 -0.0084299343
-0.004999741 -0.0052200002 -0.0084299343
-0.004999755 -0.0062500001 -0.007719948
-0.0049997312 -0.0042500002 -0.0089599239
-0.0049997754 0.0074 -0.0066399681
-0.0049998905 -0.00997 -0.00068008318
-0.0049999128 -0.0099799996 0.0004898943
-0.0049997997 0.0083600003 -0.0053999927
-0.0049997224 -0.00309 -0.0094099147
-0.0049997168 -0.00202 -0.009699909
-0.0049998756 -0.0098799998 -0.0014600683
-0.0049998607 -0.0097200004 -0.0022300533
-0.0049998248 0.0090899998 -0.0040900176
-0.0049998458 -0.0095100002 -0.0029900386
-0.004999713 -0.00039 -0.009899905
-0.0049998458 0.0095100002 -0.0029900386
-0.0049998607 0.0097200004 -0.0022300533
-0.0049998248 -0.0090899998 -0.0040900176
-0.0049997135 0.00078 -0.0098699061
-0.0049998756 0.0098799998 -0.0014600683
-0.0049998979 0.0099799996 -0.00029009068
-0.0049997997 -0.0083600003 -0.0053999927
-0.0049997168 0.00202 -0.009699909
-0.0049997754 -0.0074 -0.0066399681
-0.0049997224 0.00309 -0.0094099147
-0.0049997312 0.0042500002 -0.0089599239
-0.0050002211 -0.00241 0.016499585
-0.0050002327 -0.00217 0.017099574
-0.0050002425 -0.00177 0.017619563
-0.0050002504 -0.00125 0.018019557
-0.0050002551 -0.00065 0.018259551
-0.0050002569 0 0.018349549
-0.0050002551 0.00065 0.018259551
-0.0050002504 0.00125 0.018019557
-0.0050002425 0.00177 0.017619563
-0.0050002327 0.00217 0.017099574
-0.0050002211 0.00241 0.016499585
-0.0049997014 0.00911 -0.010489894
-0.0049997112 0.0093200002 -0.0099899033
-0.0049997196 0.0096500004 -0.0095499121
-0.0049997261 0.01009 -0.0092199184
-0.0049997298 0.01059 -0.0090099229
-0.0049997312 0.01114 -0.0089399237
-0.0049997298 0.01168 -0.0090099229
-0.0049997261 0.01219 -0.0092199184
-0.0049997196 0.01262 -0.0095499121
-0.0049997112 0.01296 -0.0099899033
-0.0049997014 0.01317 -0.010489894
-0.0049997014 -0.01317 -0.010489894
-0.0049997112 -0.01296 -0.0099899033
-0.0049997196 -0.01262 -0.0095499121
-0.0049997261 -0.01219 -0.0092199184
-0.0049997298 -0.01168 -0.0090099229
-0.0049997312 -0.01114 -0.0089399237
-0.0049997298 -0.01059 -0.0090099229
-0.0049997261 -0.01009 -0.0092199184
-0.0049997196 -0.0096500004 -0.0095499121
-0.0049997112 -0.0093200002 -0.0099899033
-0.0049997014 -0.00911 -0.010489894
-0.0050001303 -0.01317 0.011779677
-0.0050001401 -0.01296 0.012289668
-0.0050001484 -0.01262 0.012719659
-0.005000155 -0.01219 0.013059652
-0.0050001591 -0.01168 0.013269649
-0.0050001605 -0.01114 0.013339647
-0.0050001591 -0.01059 0.013269649
-0.005000155 -0.01009 0.013059652
-0.0050001484 -0.0096500004 0.012719659
-0.0050001401 -0.0093200002 0.012289668
-0.0050001303 -0.00911 0.011779677
-0.0050001303 0.00911 0.011779677
-0.0050001401 0.0093200002 0.012289668
-0.0050001484 0.0096500004 0.012719659
-0.005000155 0.01009 0.013059652
-0.0050001591 0.01059 0.013269649
-0.0050001605 0.01114 0.013339647
-0.0050001591 0.01168 0.013269649
-0.005000155 0.01219 0.013059652
-0.0050001484 0.01262 0.012719659
-0.0050001401 0.01296 0.012289668
-0.0050001303 0.01317 0.011779677
-0.0005001839 -0.00111 0.010049797
-0.00050018489 0.00046000001 0.010099796
-0.00050001504 -0.0099400003 0.0012799656
-0.00050018256 0.00156 0.0099797985
-0.00050017773 0.00272 0.0097298035
-0.00050003722 -0.0097200004 0.0024299438
-0.00050016795 0.0041299998 0.0092198132
-0.00050006033 -0.0093599996 0.0036299205
-0.00050015328 0.0055 0.0084598279
-0.00050008646 -0.0087299999 0.0049898941
-0.00050013483 0.0067400001 0.0074998457
-0.00050011172 -0.0078600002 0.0062998692
-0.00050011266 0.0078199999 0.0063498677
-0.00050013483 -0.0067400001 0.0074998457
-0.00050009286 0.0085300002 0.0053198878
-0.00050007302 0.0090899998 0.0042899079
-0.00050015328 -0.0055 0.0084598279
-0.00050004589 0.0096100001 0.0028799351
-0.00050001644 0.0099299997 0.0013499644
-0.00050016737 -0.0041899998 0.0091898134
-0.00050017773 -0.00272 0.0097298035
-0.0050000646 -0.00562 0.0083797425
-0.005000046 -0.0068399999 0.0073997611
-0.005000073 0.00495 0.0087997345
-0.0050000558 0.0062500001 0.0079197511
-0.0050000246 -0.0078600002 0.0062897825
-0.0050000832 0.0038300001 0.0093397247
-0.0049999203 0.00997 0.00087988679
-0.0050000907 0.00272 0.0097297169
-0.0050000059 -0.0085300002 0.0053198012
-0.0049999356 0.0098799998 0.0016598717
-0.0049999501 0.0097200004 0.0024298572
-0.0049999929 -0.0089100003 0.0046398141
-0.0050000972 0.00111 0.01004971
-0.0049999789 -0.0092399996 0.0039298283
-0.004999965 0.0095100002 0.0031898424
-0.004999965 -0.0095100002 0.0031898424
-0.0049999789 0.0092399996 0.0039298283
-0.0050000981 -0.00046000001 0.010099709
-0.0049999501 -0.0097200004 0.0024298572
-0.0049999356 -0.0098799998 0.0016598717
-0.0049999929 0.0089100003 0.0046398141
-0.0050000944 -0.0019499999 0.0099097127
-0.0050000125 0.00832 0.0056597944
-0.0050000884 -0.00309 0.0096097188
-0.0050000353 0.0074 0.0068397718
-0.0050000832 -0.0038300001 0.0093397247
-0.0050000772 -0.0045400001 0.009009731
-0.0025003348 -0.00050000002 0.019899568
-0.0025003348 0.00050000002 0.019899568
-0.0045002964 -0.00050000002 0.019899528
-0.0045002964 0.00050000002 0.019899528
-0.0049999123 0.01498 0.00045989489
-0.0049998984 -0.01498 -0.00026009127
-0.0049996166 0.00036000001 -0.014889809
-0.0049996199 -0.0021299999 -0.014739811
-0.0049996199 0.0021299999 -0.014739811
-0.0049998802 0.01493 -0.0012200727
-0.004999931 -0.01493 0.0014198764
-0.004999626 -0.0037799999 -0.014409819
-0.004999626 0.0037799999 -0.014409819
-0.0049998476 0.01469 -0.0029100401
-0.0049999636 0.01469 0.0031098439
-0.0049999636 -0.01469 0.0031098439
-0.0049998476 -0.01469 -0.0029100401
-0.0049996176 -0.00132 -0.01483981
-0.0049999016 0.01499 -0.00010009433
-0.0049999091 -0.01499 0.00029989798
-0.0049998295 0.01447 -0.003840022
-0.0049999813 0.01447 0.0040398259
-0.0049999813 -0.01447 0.0040398259
-0.0049998295 -0.01447 -0.003840022
-0.004999869 0.01488 -0.0018000616
-0.0049999421 0.01488 0.0019998655
-0.0049999421 -0.01488 0.0019998655
-0.004999869 -0.01488 -0.0018000616
-0.0049999347 0.01492 0.0016098728
-0.0049998765 -0.01492 -0.0014100692
-0.0049998225 0.01436 -0.0042100153
-0.0049999882 0.01436 0.0044098189
-0.0049999882 -0.01436 0.0044098189
-0.0049998225 -0.01436 -0.0042100153
-0.004999618 0.00151 -0.014819811
-0.0049996288 -0.0043100002 -0.014259821
-0.0049996288 0.0043100002 -0.014259821
-0.0049998909 0.01498 -0.00066008361
-0.0049999203 -0.01498 0.00085988716
-0.0049996166 -0.00019999999 -0.014899809
-0.0049996213 -0.00269 -0.014659814
-0.0049996213 0.00269 -0.014659814
-0.0049999235 0.01497 0.0010498834
-0.0049998872 -0.01497 -0.00085007993
-0.0049998122 0.01419 -0.004750005
-0.004999999 0.01419 0.0049498081
-0.004999999 -0.01419 0.0049498081
-0.0049998122 -0.01419 -0.004750005
-0.0049996171 0.00095000002 -0.01486981
-0.004999632 -0.0048500001 -0.014089825
-0.004999632 0.0048500001 -0.014089825
-0.0049998402 0.01461 -0.0032900327
-0.0049999706 0.01461 0.0034898366
-0.0049999706 -0.01461 0.0034898366
-0.0049998402 -0.01461 -0.0032900327
-0.0049998579 0.0148 -0.0023600508
-0.0049999529 0.0148 0.0025598544
-0.0049999529 -0.0148 0.0025598544
-0.0049998579 -0.0148 -0.0023600508
