# .PCD v0.7 - Point Cloud Data file format
VERSION 0.7
FIELDS x y z
SIZE 4 4 4
TYPE F F F
COUNT 1 1 1
WIDTH 1345
HEIGHT 1
VIEWPOINT 0 0 0 1 0 0 0
POINTS 1345
DATA ascii
0.0502 -0.12749808 0.027697012
0.0416 -0.12839636 -0.060601309
0.0206 -0.13199681 -0.033601891
0.068099998 -0.12009774 0.0026976359
0.044 -0.12909819 0.035396833
0.062100001 -0.12249819 0.028697088
0.0263 -0.13089871 0.064196244
0.066299997 -0.12059799 0.016297365
0.034000002 -0.12989865 0.060296338
0.050999999 -0.12609847 0.046396676
0.046100002 -0.12729855 0.051596556
0.040199999 -0.12869862 0.056296438
-0.0726 -0.10949735 -0.028101569
-0.074900001 -0.10279689 -0.05860085
-0.060899999 -0.11739843 0.035897046
-0.072499998 -0.091997676 -0.02860122
-0.071699999 -0.09249755 -0.034801111
-0.077699997 -0.092097707 -0.027001254
-0.074000001 -0.10519728 -0.035901334
-0.029899999 -0.11859465 -0.1597992
0.0272 -0.11899465 -0.15939923
-0.076800004 -0.094497487 -0.036001123
-0.074900001 -0.10269576 -0.1181997
-0.081 -0.094095424 -0.14349906
-0.046100002 -0.11179461 -0.16819891
-0.053100001 -0.10859466 -0.16819885
-0.074600004 -0.096295029 -0.16159873
-0.080799997 -0.09069512 -0.1630986
-0.078400001 -0.092395127 -0.1605987
-0.074100003 -0.091895044 -0.16559859
-0.081100002 -0.095095016 -0.16379867
-0.075800002 -0.095195025 -0.16349868
0.0429 -0.11309459 -0.16799894
0.035500001 -0.11659464 -0.16169913
0.084700003 -0.090195447 -0.14609893
0.052999999 -0.12259667 -0.050201397
0.0623 -0.10499535 -0.13659941
0.066699997 -0.10829726 -0.034001432
0.077600002 -0.094197929 -0.013601552
0.0612 -0.1049967 -0.066300742
0.073200002 -0.10119764 -0.02120154
0.048300002 -0.11279578 -0.10700011
0.053300001 -0.10529565 -0.1205997
0.056299999 -0.10209607 -0.1019
0.0735 -0.096297555 -0.030501267
-0.0744 -0.094497621 -0.02910126
-0.072700001 -0.093997531 -0.033901159
-0.077399999 -0.094396323 -0.096899956
-0.076499999 -0.094898067 -0.0054017236
-0.066100001 -0.094198965 0.04019741
-0.064400002 -0.11049851 0.033097237
-0.061299998 -0.10969866 0.039997116
-0.065099999 -0.09389884 0.033697546
-0.061099999 -0.092198968 0.038197491
-0.062100001 -0.092498891 0.034797549
0.069700003 -0.095197268 -0.046700936
0.067400001 -0.094698921 0.038697433
0.062100001 -0.09509889 0.03749745
0.0026 -0.094499655 0.07679671
-0.0016 -0.094699584 0.073196769
-0.097900003 -0.070595376 -0.16979809
-0.097800002 -0.07249549 -0.16179828
-0.097800002 -0.07249549 -0.16189829
-0.098099999 -0.071695469 -0.16369823
-0.097999997 -0.071695454 -0.16439822
-0.097800002 -0.071895435 -0.16509821
-0.097800002 -0.071895443 -0.16479822
0.064800002 -0.09229888 0.034397561
0.065499999 -0.092498884 0.034497555
0.064800002 -0.092598885 0.034397554
-0.079999998 -0.091495119 -0.16229863
-0.080499999 -0.091295153 -0.16059868
-0.080200002 -0.09109512 -0.16259862
-0.099200003 -0.067795336 -0.17439796
-0.097800002 -0.070695363 -0.16979809
-0.098999999 -0.071395561 -0.1593983
-0.095600002 -0.073195286 -0.17179811
-0.097800002 -0.072195463 -0.16339824
-0.097900003 -0.072595485 -0.16169828
-0.097800002 -0.071395405 -0.16739815
-0.080399998 -0.09109512 -0.16269863
-0.080600001 -0.090995133 -0.16179864
-0.080399998 -0.091195129 -0.16159864
-0.0801 -0.091295116 -0.16239864
-0.01145 0.056500681 -0.091897145
-0.0096000005 0.056250684 -0.091897152
-0.081699997 -0.074097462 -0.058050308
-0.01185 0.056000695 -0.091897152
-0.08145 -0.08009734 -0.058050424
-0.081500001 -0.080047339 -0.058050424
-0.080799997 -0.082047373 -0.05465053
0.069650002 -0.075547338 -0.062750243
0.069200002 -0.089097083 -0.062650509
0.073700003 0.09394934 -0.059497047
-0.090750001 -0.014347184 -0.13184775
-0.080849998 -0.014047241 -0.12929778
0.057549998 -0.012747261 -0.12949775
0.059300002 -0.01274725 -0.13009773
-0.075900003 -0.014297258 -0.12809779
-0.059300002 -0.015297296 -0.12519789
0.0046000001 -0.0030976024 -0.12144772
0.01055 -0.0036475849 -0.12179772
0.00089999998 0.11220044 -0.13489525
0.077399999 -0.0031973131 -0.13634744
-0.054699998 -0.019197231 -0.12474798
-0.095550001 -0.0078972885 -0.13294758
0.07485 0.083399333 -0.048747454
-0.047649998 -0.019197248 -0.12384799
-0.075850002 -0.061997257 -0.080499642
-0.080499999 -0.082747735 -0.03500092
0.071699999 0.094349556 -0.071396813
-0.04115 0.056500513 -0.083247311
-0.036649998 0.056000758 -0.09524709
0.066650003 -0.092896745 -0.076300323
0.066749997 -0.090546787 -0.076250277
-0.065899998 -0.062046997 -0.093899384
0.079149999 0.0038025586 -0.13669729
-0.044050001 -0.024047155 -0.12364808
0.045899998 -0.02489708 -0.12684803
-0.065549999 -0.061997045 -0.091599427
-0.075599998 0.10199849 -0.023897577
0.070950001 0.095799446 -0.067146853
-0.044070002 0.056500681 -0.091897145
0.02118 0.056500681 -0.091897145
-0.074450001 0.098450929 -0.14669527
-0.09815 0.0010525461 -0.13329743
-0.041299999 0.056130689 -0.091897152
0.0221 0.056370687 -0.091897145
-0.042149998 0.055950794 -0.097097047
-0.082950003 -0.068046987 -0.088379614
-0.080449998 -0.080147922 -0.027721008
0.0241 0.056500513 -0.083247311
-0.04222 0.056250684 -0.091897152
-0.04242 0.056000695 -0.091897152
0.01873 0.056000695 -0.091897152
-0.082630001 -0.076996818 -0.088379785
-0.08027 -0.083197862 -0.027721068
-0.082649998 -0.076976821 -0.088379785
-0.080349997 -0.083117865 -0.027721066
-0.080320001 -0.083147861 -0.027721066
-0.08275 -0.073996879 -0.088379726
-0.083149999 -0.061997104 -0.088379495
-0.076049998 0.096851006 -0.14909527
0.0656 -0.093946613 -0.081900232
-0.079000004 0.094501048 -0.1490453
0.062650003 0.10199949 -0.075846575
0.047200002 -0.061997011 -0.093349397
-0.0164 -0.028447099 -0.12219819
-0.064000003 -0.029247003 -0.12644814
0.019850001 0.056130689 -0.091897152
-0.072300002 -0.029046979 -0.12794811
0.049350001 -0.029046981 -0.1278481
0.023399999 -0.029047061 -0.12364817
0.01575 0.11520041 -0.13654515
-0.081649996 -0.079926856 -0.083269939
-0.079949997 -0.084167883 -0.026021119
0.054650001 -0.028396966 -0.12914807
-0.068000004 -0.028397005 -0.12709811
0.081349999 0.015652338 -0.13709706
0.050650001 -0.11414606 -0.090700455
-0.041250002 -0.061997037 -0.091899425
-0.067699999 0.10240094 -0.15149511
-0.051199999 0.056500472 -0.080997355
-0.072099999 0.099401005 -0.15154517
0.014 0.11335042 -0.13554522
-0.01345 -0.12724555 -0.10425045
-0.037749998 -0.016247321 -0.12289795
-0.081969999 -0.078946844 -0.084969878
0.0348 0.12129974 -0.10814559
0.0317 -0.061996873 -0.10049926
-0.0049000001 0.12354969 -0.10739555
-0.076200001 0.10199861 -0.030097457
0.01505 -0.026247129 -0.12289814
-0.0198 0.013102074 -0.12084742
0.061500002 -0.10134657 -0.076550476
-0.051550001 0.11639982 -0.1071457
0.073729999 -0.082317673 -0.038320847
0.065119997 -0.082316734 -0.087069914
0.064350002 -0.097346649 -0.0764504
0.065669999 -0.068767004 -0.086769655
0.066399999 -0.094096705 -0.077000327
0.024499999 0.056000758 -0.09524709
0.02015 -0.025097147 -0.12319811
-0.031399999 0.12174977 -0.11014553
0.0735 -0.089097552 -0.038270976
0.064900003 -0.089096613 -0.087030038
-0.060249999 -0.062046468 -0.12129886
0.054949999 -0.061997127 -0.087199517
0.065949999 -0.061997138 -0.086619526
0.038899999 -0.034546908 -0.12599824
-0.078699999 -0.088297918 -0.019701321
0.077100001 0.093968868 -0.035347506
0.070299998 0.093919799 -0.083646581
-0.080949999 0.091901213 -0.15474525
-0.0109 -0.022497218 -0.12199809
-0.0285 0.011702108 -0.12124745
-0.021849999 -0.061996892 -0.099449277
-0.078500003 -0.090096951 -0.068000428
0.00065 0.12989749 -9.7497199e-05
-0.05965 0.10670093 -0.15529495
-0.015900001 0.11680035 -0.13489516
-0.062849998 0.10485097 -0.15524499
0.0275 0.12209979 -0.1115955
0.0209 0.1168504 -0.13724512
0.0298 -0.034446936 -0.12454826
0.02445 0.12239979 -0.1114455
0.054850001 0.12254807 -0.022297211
0.01225 -0.022447208 -0.12259807
0.032000002 0.056500513 -0.08314731
-0.079049997 -0.087247923 -0.020751281
-0.02135 -0.03519696 -0.12259831
0.031950001 0.12144981 -0.11159551
0.077019997 0.070149228 -0.029868074
0.077399999 -0.025216872 -0.13714786
-0.083570004 -0.036216784 -0.13081819
-0.001 -0.022397218 -0.12199809
-0.0060000001 -0.023097208 -0.1219481
0.033100002 0.012002144 -0.12334739
-0.0128 -0.061996516 -0.1190489
-0.077500001 0.10199913 -0.056746945
-0.0091500003 0.12314979 -0.11224547
0.0112 0.055750843 -0.099397011
-0.0094999997 0.044101428 -0.11829687
-0.088019997 0.0078323577 -0.13031735
-0.09347 -0.03651673 -0.13337813
-0.033399999 0.055850834 -0.099247023
-0.01155 0.1263489 -0.06854625
0.015799999 -0.12854587 -0.086200811
0.053300001 0.10970091 -0.15689486
-0.078620002 -0.036066812 -0.12954821
-0.083080001 0.0079723308 -0.12904736
0.070699997 0.099699028 -0.049547128
-0.05415 0.10925093 -0.15729487
0.058419999 -0.034776814 -0.13059816
-0.06955 0.115298 -0.011147566
0.058419999 0.0092823049 -0.12899733
0.056669999 -0.034776825 -0.12999816
0.059300002 0.0092823105 -0.12929733
0.059300002 -0.034776811 -0.13089815
-0.078129999 0.0077223131 -0.12784739
-0.018100001 -0.12654543 -0.1110503
-0.075649999 0.0076023038 -0.12724741
-0.07615 -0.036196824 -0.12894821
0.063950002 0.10309933 -0.068046704
-0.048900001 0.11170087 -0.15724483
0.048549999 0.1115009 -0.15789482
-0.0027999999 -0.12804575 -0.092900679
-0.029549999 -0.12584554 -0.10600038
0.054749999 -0.10889624 -0.086650424
-0.1001 0.014852282 -0.13334715
-0.059549998 -0.036896862 -0.12599829
-0.059050001 0.0063022738 -0.12439749
0.00095000002 -0.061996896 -0.099199288
-0.073449999 0.10839812 -0.010797706
-0.071149997 0.114248 -0.010497598
0.077399999 -0.047246434 -0.13794826
0.0638 0.10419931 -0.068546675
-0.00245 -0.13294736 -0.0035524911
-0.083700001 0.088651352 -0.15854523
-0.036350001 0.12024989 -0.11444548
0.045049999 0.11305086 -0.15784478
0.046050001 -0.12734649 -0.054951392
0.0078999996 0.12434946 -0.096545756
0.0088 0.12824833 -0.041596729
0.0105 0.017152 -0.12106734
-0.074699998 0.10479819 -0.010747776
-0.0438 0.11345086 -0.15809476
-0.033500001 -0.1309983 0.042196665
-0.090899996 0.08140149 -0.15854537
-0.084150001 0.080599293 -0.043597609
-0.086900003 0.076250173 -0.084996894
-0.040100001 0.11485083 -0.15809475
0.00465 -0.023897188 -0.12216811
0.0045500002 0.017701983 -0.12071733
-0.035750002 0.11595082 -0.15839471
0.0136 -0.061996914 -0.098349303
0.01347 0.016872009 -0.12124734
0.0076199998 -0.024167178 -0.12234811
-0.044199999 0.11814994 -0.11439552
-0.02 0.12899652 0.051051501
-0.077650003 0.10194953 -0.077246547
-0.028349999 0.12164987 -0.11444546
0.03255 0.11690079 -0.15839469
-0.02485 0.12214985 -0.11449544
-0.086750001 0.070370294 -0.085566998
0.0138 -0.11289922 0.072646424
-0.087200001 0.085451409 -0.1585453
-0.04135 0.11899992 -0.11439551
-0.081200004 0.089499094 -0.042147461
-0.0748 0.10384823 -0.011497779
-0.0131 -0.11294922 0.072796427
-0.020649999 -0.132798 0.029096883
0.0067500002 -0.11269926 0.073796406
-0.0502 -0.038846847 -0.12487834
-0.0011 0.019201953 -0.1205473
-0.019200001 0.11220044 -0.13489525
0.021 0.11220044 -0.13489525
0.022700001 0.075197063 0.077349953
0.023700001 -0.11279918 0.070046484
-0.054699998 0.11414999 -0.11344562
-0.0088499999 -0.11294924 0.07354641
0.077699997 0.035051927 -0.13504674
0.068350002 0.01405228 -0.13242719
0.086450003 -0.020446906 -0.14027768
0.099749997 0.019402392 -0.14364685
-0.05215 0.00045237321 -0.12371761
-0.057250001 -0.038846828 -0.12577832
0.043249998 -0.12449576 -0.095550559
0.052499998 0.075247377 0.061100271
-0.01475 -0.13314773 0.015647136
-0.050749999 -0.062016752 -0.10659914
0.0093 -0.11309924 0.073496409
-0.09042 0.011052307 -0.13086727
-0.10068 -0.026846882 -0.13501793
0.07203 0.078099795 -0.067517199
0.07767 0.088698864 -0.029967714
-0.01925 -0.11254921 0.071496457
-0.04862 0.00045236456 -0.12326761
-0.046670001 -0.038846854 -0.12442835
0.0187 -0.11259921 0.071696453
-0.082199998 -0.078496717 -0.092249736
-0.0099499999 0.019251946 -0.12039731
-0.023949999 -0.11254918 0.070096485
-0.033399999 -0.11179912 0.066046573
-0.048950002 0.11664994 -0.11344557
-0.080020003 -0.061996888 -0.099599279
-0.00034999999 0.12414952 -0.099095702
0.031199999 -0.11234913 0.067096554
-0.028349999 -0.11214916 0.068346523
-0.065200001 -0.10304493 -0.1600989
-0.0414 -0.11089905 0.061346684
-0.0294 -0.1315483 0.043546628
-0.050000001 -0.10974894 0.054446843
-0.069399998 -0.11909745 -0.013102041
0.076849997 0.075298078 0.024300981
0.020099999 0.12944674 0.039601728
0.070950001 0.098399125 -0.052947082
0.03125 0.12794666 0.045751583
0.02775 -0.11239916 0.06864652
0.041650001 -0.039396804 -0.12654832
-0.021050001 0.074997053 0.077999942
-0.037050001 -0.11114909 0.064046621
0.080449998 0.075448468 0.0041513722
0.080150001 0.075248718 -0.0084483875
0.032200001 0.075147122 0.074150018
-0.079800002 -0.084528066 -0.016201317
-0.081200004 -0.080967404 -0.053800523
0.018100001 0.018601982 -0.1214973
0.059099998 0.075197496 0.055100389
-0.01485 0.019851938 -0.1204473
0.08055 0.075248629 -0.0040484737
-0.0149 0.075197026 0.079499915
-0.0495 0.074497335 0.063750207
0.0471 0.075247288 0.065700181
0.038600001 -0.11194906 0.063096635
-0.086850002 -0.085445262 -0.16049856
0.0283 -0.12319513 -0.12964986
0.078199998 0.075198166 0.019951064
0.035050001 -0.1118491 0.065146595
0.0162 0.075197026 0.079299919
-0.027799999 0.074997097 0.075949982
-0.00050000002 0.049551252 -0.11449684
-0.047249999 -0.10994898 0.056996785
-0.0341 0.074697152 0.073200032
0.028000001 -0.12699567 -0.098650545
-0.086549997 0.066150442 -0.088897012
-0.0059199999 -0.061996706 -0.10912909
0.075499997 0.075497992 0.028450904
-0.0069499998 -0.13034633 -0.060201351
0.080650002 0.075448573 -0.0010985262
0.024499999 -0.12414516 -0.12744993
-0.045049999 -0.11019901 0.058696747
-0.057500001 0.11294999 -0.11249565
-0.039000001 0.054900941 -0.10374694
0.079850003 0.075448766 -0.011098334
-0.070550002 -0.099444993 -0.16054882
0.045899998 -0.11119898 0.057946745
0.027799999 -0.061896466 -0.12169885
0.068350002 -0.041006621 -0.13441819
-0.054450002 0.0024023403 -0.12394757
-0.086750001 0.069200367 -0.088046968
-0.056299999 -0.10829884 0.048096985
0.074100003 0.094569206 -0.053197153
0.069300003 0.094119921 -0.089596458
-0.058350001 0.1170992 -0.075946279
0.074500002 0.096201234 -0.16064505
-0.05892 0.056500599 -0.087577231
-0.039000001 0.074697196 0.070800073
-0.042750001 0.074497245 0.068550117
-0.05483 0.056000728 -0.093577117
-0.01847 0.056000791 -0.096917056
0.028100001 -0.061996479 -0.12094886
0.0068999999 0.055300899 -0.10204697
0.052999999 -0.11049886 0.05139688
-0.071000002 -0.10444839 0.020447595
-0.063249998 0.11449926 -0.076396324
-0.037999999 0.055550873 -0.10074699
-0.0022499999 -0.11009926 0.071696505
-0.094149999 0.077351607 -0.16089541
0.041700002 -0.11134903 0.061096679
0.05875 -0.10354639 -0.084100381
-0.00060000003 -0.11009925 0.070746519
-0.070950001 -0.11649679 -0.050201278
-0.070600003 -0.11469758 -0.011001997
0.019649999 0.12339965 -0.1047956
-0.11185 0.017352292 -0.13639705
-0.060600001 -0.10744875 0.042447116
-0.072449997 -0.10374828 0.014297727
-0.0537 -0.10869889 0.050896928
0.063620001 -0.090996437 -0.093849942
0.01605 0.1236496 -0.10279563
0.063519999 -0.093346395 -0.093899988
0.06978 -0.092447087 -0.058700651
0.058249999 -0.10979876 0.045197017
-0.063150004 -0.11569583 -0.10115028
-0.0107 -0.13319764 0.010247238
0.069820002 -0.091267109 -0.058670629
0.063680001 -0.089816466 -0.093819924
-0.073749997 -0.10704648 -0.075850606
0.0243 0.12844826 -0.038246788
-0.058400001 -0.1076488 0.045397054
-0.09815 0.071551755 -0.1628955
0.063500002 -0.061997011 -0.093169399
-0.024350001 -0.12634549 -0.10865033
-0.054749999 0.074147426 0.059550278
-0.024669999 -0.061997157 -0.085749537
-0.080219999 -0.071068391 -0.012561126
-0.067450002 -0.10569855 0.030297382
-0.098269999 -0.030076832 -0.13446799
0.00019999999 0.12245081 -0.16394448
0.061500002 0.10199973 -0.088046335
-0.076449998 -0.097396679 -0.075250432
0.0726 0.10199861 -0.030197456
-0.10595 0.059551988 -0.16289572
-0.075400002 -0.062066715 -0.1085991
0.04885 -0.11049894 0.055596802
-0.085349999 0.080250032 -0.081646882
0.069219999 0.017552217 -0.1325971
0.08907 -0.0099470969 -0.14079748
0.0243 0.11680035 -0.13489516
0.0146 0.11855038 -0.13779506
0 -0.12259448 -0.16404919
-0.073449999 -0.10344818 0.0088478373
-0.069949999 -0.10469845 0.024197519
0.079099998 0.092101358 -0.1623451
0.078500003 -0.077948697 0.0099483076
0.050299998 0.12194886 -0.062646449
0.069600001 -0.10814836 0.02269748
-0.04487 -0.041266814 -0.12431841
-0.043219998 -0.006817501 -0.12296776
0.02225 -0.13209842 0.050246488
-0.071900003 -0.10409832 0.017197665
0.071450002 0.083369799 -0.072896995
0.075949997 -0.077998929 0.022398066
0.044799998 0.12009954 -0.096495837
-0.068000004 0.073047757 0.043350574
-0.085150003 0.062650479 -0.087377109
0.034699999 0.1274467 0.044051606
0.0748 0.057601452 -0.13304633
-0.0073000002 0.12674879 -0.063696325
0.037 0.12799796 -0.022047112
-0.064949997 0.07349766 0.048000492
0.0167 0.055800803 -0.097547047
0.030449999 -0.13119666 -0.041601725
0.00095000002 0.12694873 -0.061146379
-0.085749999 0.064300448 -0.087397076
0.05545 -0.10989882 0.048796944
-0.068949997 -0.10509849 0.026847459
0.02825 0.12924699 0.027351961
-0.029300001 0.12764846 -0.048246615
0.032200001 -0.06199716 -0.085619546
0.0078499997 -0.12809575 -0.092000693
-0.052549999 0.12089892 -0.064746432
0.068949997 -0.077799253 0.039047752
0.022150001 -0.12764572 -0.094250642
-0.076300003 -0.097447298 -0.042801056
0.040449999 -0.0041475133 -0.12499768
0.07485 -0.054346308 -0.13729841
-0.067450002 0.11664808 -0.016747432
-0.09065 -0.081045315 -0.16264844
0.01395 -0.077749997 0.077897005
-0.01475 -0.077799998 0.077797003
-0.0176 -0.13029632 -0.061101329
0.082950003 0.08870142 -0.16239516
0.082099997 -0.08909516 -0.16239859
-0.070600003 0.072997838 0.03925065
0.04555 -0.04149675 -0.12736835
0.046250001 -0.008297408 -0.12631774
0.11915 -4.7092901e-05 -0.15094709
0.072149999 0.10199863 -0.031097438
0.031399999 -0.06039644 -0.12469877
0.063299999 -0.077899419 0.047647581
0.025350001 -0.077949949 0.075047053
-0.00089999998 0.12165082 -0.16419449
0.086199999 -0.08559522 -0.16274853
-0.0735 -0.1041481 0.0053978912
0.04005 -0.077999815 0.068397179
-0.093800001 -0.07739538 -0.16264836
-0.12125 0.0081030112 -0.1644467
-0.0082 0.078196943 0.080449954
-0.074869998 -0.061996784 -0.10514916
0.033050001 -0.077949889 0.071997114
0.079300001 -0.077998482 -0.00090148434
0.0605 -0.10904871 0.042347085
0.082549997 -0.08904516 -0.16269858
-0.11195 0.04710225 -0.16389593
-0.073550001 0.10714962 -0.086896263
-0.076350003 0.10199881 -0.040247262
-0.07485 0.10199818 -0.0075478912
-0.023700001 -0.077799954 0.075647049
0.068180002 0.096299745 -0.083216541
0.073729999 0.095299147 -0.051067181
-0.00315 0.047351323 -0.11614686
0.037489999 0.056500681 -0.091897145
-0.060389999 0.056500681 -0.091897145
-0.027760001 0.056500681 -0.091897145
0.0048600002 0.056500681 -0.091897145
-0.050749999 -0.12799753 -0.00085244793
0.071450002 0.10199862 -0.030647445
-0.091449998 -0.073845908 -0.13849875
0.072999999 -0.078049093 0.031147897
-0.07587 0.099920586 -0.13059556
-0.073030002 0.096971266 -0.16279501
0.03895 -0.13119747 9.747217e-05
0.0458 -0.078049742 0.064697251
-0.037099998 -0.12839618 -0.069901124
0.0252 0.12604895 -0.072046183
0.05435 -0.077899612 0.057797384
-0.1101 -0.051545855 -0.16384783
0.01505 0.12989683 0.034251839
0.07925 -0.078148574 0.0041484153
-0.0306 -0.07784991 0.073147096
0.045600001 0.11959957 -0.097645819
0.01055 -0.1331476 0.0086972695
-0.10215 0.066151865 -0.1628956
0.035149999 0.12859732 0.010952265
0.058499999 -0.077899538 0.053597465
-0.03025 -0.13249761 0.0082972888
0.085900001 0.085601501 -0.1634952
-0.0094999997 -0.077600017 0.078746989
0.07621 -0.072158106 -0.026210885
0.050000001 -0.077899687 0.061547313
-0.09172 0.015532224 -0.13104719
-0.10457 -0.013427132 -0.13554765
0.0792 -0.077948384 -0.0061013834
0.0094499998 -0.077950016 0.078746989
-0.078050002 -0.090248048 -0.011151523
0.0077900002 0.056500513 -0.083247311
0.04315 -0.1302475 9.7490454e-05
-0.097099997 -0.073095448 -0.16349825
-0.045049999 -0.12784649 -0.054551411
0.056400001 0.015652167 -0.12814723
0.077699997 -0.077898823 0.016648181
0.036499999 -0.077899858 0.070447147
-0.0017 0.078296937 0.080999948
-0.056949999 -0.12134618 -0.07720086
0.0088999998 0.12919797 -0.023847053
0.037950002 0.056440681 -0.091897145
-0.057149999 0.05606069 -0.091897152
-0.025450001 0.056190688 -0.091897152
0.0062500001 0.056310687 -0.091897145
-0.018999999 -0.077799983 0.07704702
0.0038000001 -0.13029633 -0.06015135
0.02035 -0.077749975 0.076697029
-0.03015 -0.059996478 -0.12279879
-0.046750002 -0.076999746 0.06394729
-0.01385 0.12934648 0.054001451
-0.0115 0.12994683 0.034801833
0.060649998 -0.077796221 -0.11844922
0.071500003 -0.077799164 0.034547836
0.0493 0.11454971 -0.099595882
0.063409999 -0.072156705 -0.098939478
0.066100001 -0.07779935 0.044047654
0.030549999 -0.060796458 -0.1231988
-0.11965 -0.02134642 -0.16454725
-0.040199999 -0.077499829 0.068347193
-0.1144 -0.041296043 -0.16419762
0.0068999999 -0.077550031 0.079046987
-0.02672 0.055930842 -0.099696994
-0.057569999 0.05597074 -0.0944971
-0.029750001 -0.027647104 -0.12274817
-0.00069999998 -0.058796495 -0.12324876
0.0041999999 -0.076950036 0.079096995
0.072449997 -0.10739814 0.010697727
0.1129 0.042652398 -0.16714597
-0.03565 -0.077499874 0.070847146
0.00205 -0.12609528 -0.11945013
-0.050900001 -0.06179646 -0.12204885
0.089550003 0.081951566 -0.16344528
-0.1188 0.026102658 -0.16419633
-0.066 -0.11949679 -0.047201395
-0.015699999 -0.13314785 0.021347025
-0.11735 -0.031946223 -0.16424745
0.088200003 -0.013447034 -0.14062755
-0.1155 0.037952427 -0.16394611
-0.12145 -0.0056967204 -0.16464692
-0.082319997 -0.071067221 -0.073209964
-0.07982 -0.083178163 -0.012561359
-0.081069998 -0.077117689 -0.04289066
-0.083570004 -0.065026753 -0.10353926
-0.0296 0.1281466 0.048151538
0.01045 0.12974761 -0.0063473796
-0.081280001 -0.071067803 -0.042890541
0.03895 0.056500599 -0.087577231
-0.0263 0.056500599 -0.087577231
-0.0381 0.12784803 -0.025847042
-0.08337 -0.070966639 -0.10353937
-0.072549999 -0.110547 -0.04545125
-0.01175 -0.12279486 -0.1442496
-0.081200004 0.094900176 -0.10424617
0.00125 -0.1074493 0.071246557
0.028200001 -0.13254781 0.018197099
-0.0073000002 -0.076850034 0.078947
-0.075049996 -0.062016759 -0.10629914
0.041250002 0.12429889 -0.066446327
-0.0396 -0.12484564 -0.10120045
-0.0436 0.12514853 -0.049746633
-0.1096 0.052802131 -0.16354585
0.019750001 -0.13109654 -0.048951585
0.0057899999 0.056370687 -0.091897145
-0.026839999 0.056370687 -0.091897145
-0.057610001 0.056130689 -0.091897152
0.0263 -0.1316984 0.048846524
0.067850001 -0.10824846 0.028447367
-0.01495 0.12344966 -0.10569559
0.089149997 -0.082445264 -0.16374843
-0.044550002 -0.077249773 0.065647244
0.04905 -0.1260964 -0.060901254
0.0030499999 -0.10749932 0.072146542
0.034010001 0.056000695 -0.091897152
-0.057709999 0.056000695 -0.091897152
-0.027140001 0.056000695 -0.091897152
0.0034399999 0.056000695 -0.091897152
-0.07745 0.1029994 -0.071846634
-0.0021500001 -0.12169449 -0.16439918
-0.0109 0.13004734 0.0088023338
-0.082039997 -0.078547083 -0.073210105
-0.079690002 -0.084748127 -0.012561389
-0.080859996 -0.081647597 -0.042890746
-0.083209999 -0.075446554 -0.10353946
-0.08207 -0.078507081 -0.073210105
-0.079769999 -0.084658131 -0.012561387
-0.080920003 -0.081587598 -0.042890746
-0.083219998 -0.075436547 -0.10353946
0.00044999999 -0.1224948 -0.1474995
-0.082060002 -0.078517079 -0.073210105
-0.07976 -0.08466813 -0.012561387
-0.08089 -0.081617601 -0.042890746
-0.080899999 -0.081607603 -0.042890746
-0.058150001 -0.076399572 0.054047488
-0.079740003 -0.084698133 -0.012561388
0.078759998 0.082068816 -0.020538026
0.032049999 -0.12679572 -0.095550604
-0.082170002 -0.075537138 -0.073210046
0.029650001 0.12564901 -0.073296167
-0.05215 -0.12354614 -0.077150896
0.052850001 -0.12694712 -0.022102019
-0.075999998 0.1019984 -0.018797675
-0.071800001 0.014752147 -0.12624729
-0.07677 0.093821354 -0.16394503
-0.082220003 -0.074047171 -0.073210016
-0.080969997 -0.080097631 -0.042890716
-0.083269998 -0.07394658 -0.10353943
-0.083669998 -0.061996814 -0.1035392
-0.017899999 0.11840037 -0.13779506
0.042350002 -0.0061974647 -0.1254977
0.068049997 0.083350271 -0.097046532
-0.0528 -0.076999657 0.059397373
-0.073830001 0.096181303 -0.163995
-0.078270003 0.097530708 -0.13419555
0.043499999 0.1207995 -0.094245858
-0.045019999 -0.0043975455 -0.12307771
-0.0024999999 -0.12254452 -0.16199924
0.0682 -0.094026901 -0.067100525
0.063000001 -0.093876325 -0.096699946
0.062650003 -0.076846108 -0.12489907
0.032699998 0.125349 -0.073446169
-0.080449998 -0.083697267 -0.058350489
-0.11725 0.032502536 -0.16419621
-0.078249998 0.092651375 -0.16391505
-0.079750001 0.096350729 -0.13417557
-0.07265 0.075547874 0.034950778
0.061050002 -0.076846205 -0.11999917
-0.0012000001 -0.12249468 -0.15364939
0.017100001 0.12060034 -0.138345
0.016249999 -0.13234845 0.052196447
-0.02637 0.056310687 -0.091897145
-0.12025 0.018552808 -0.16444649
0.060120001 0.10199977 -0.09052629
0.065169998 0.10199921 -0.06116686
0.046700001 -0.061996724 -0.10821911
-0.02005 -0.13204698 -0.024152078
0.00015000001 -0.060546488 -0.12194882
-0.064049996 -0.076399431 0.046947625
-0.02555 0.039351549 -0.11984693
0.093099996 0.07765168 -0.16469534
-0.1123 -0.046995934 -0.16414775
-0.016349999 -0.043216806 -0.12269847
-0.016450001 -0.013667393 -0.12169792
-0.055550002 -0.076799624 0.056847427
0.12255 0.0071027982 -0.15244693
-0.061900001 -0.043876719 -0.1266284
-0.066100001 -0.014617288 -0.12627785
-0.063500002 0.013952135 -0.12484732
-0.03695 0.12624864 -0.055996496
0.075499997 -0.09054774 -0.026651232
0.1063 -0.035146419 -0.15064776
-0.077150002 -0.075098909 0.018448198
0.0074499999 -0.13219693 -0.026952025
-0.030999999 -0.05824649 -0.12409873
0.0051299999 0.056190688 -0.091897152
0.03458 0.05606069 -0.091897152
-0.02657 0.05606069 -0.091897152
-0.0295 0.12934749 0.0012524661
-0.070249997 -0.014527275 -0.12702784
-0.074349999 -0.04357668 -0.12886834
0.04727 -0.043576699 -0.12787838
0.051430002 -0.01452726 -0.12781782
0.073399998 -0.10699792 -0.0011520379
-0.11865 -0.027146311 -0.16439736
0.082450002 -0.063946068 -0.14044854
-0.020500001 0.1230997 -0.10754556
-0.074900001 0.10964897 -0.056246802
0.042750001 -0.11529482 -0.15354927
0.07305 -0.1071978 -0.007101927
0.01035 0.12949783 -0.016547188
-0.0272 0.12534912 -0.07959605
0.01305 0.13004734 0.0088023338
-0.042399999 0.12279917 -0.079596102
-0.12085 -0.01364657 -0.16449709
0.065700002 0.10325097 -0.15379505
0.0252 -0.043476772 -0.12431844
0.021600001 -0.014617351 -0.12296791
0.071999997 0.08009775 0.036700834
-0.073200002 -0.075699136 0.030947948
-0.068800002 -0.0757493 0.03959778
-0.080399998 0.071398519 0.0057512638
0.060770001 0.057620481 -0.082697295
0.063600004 0.11884791 -0.010197516
0.0484 -0.11149567 -0.11364996
-0.076899998 0.10509961 -0.084946334
-0.08185 0.084348537 -0.0085482113
-0.058540002 0.056250684 -0.091897152
-0.0359 0.12674659 0.050551467
0.071699999 -0.10719825 0.016497618
-0.076300003 0.10484887 -0.04619709
0.065399997 0.099399723 -0.085096449
0.030169999 0.1155504 -0.13671514
0.00132 0.11485041 -0.13636518
0.0017500001 0.12834828 -0.038946781
0.00655 -0.13264722 -0.012702309
-0.057599999 -0.12354668 -0.048651446
0.0792 0.080048151 0.015701238
0.0726 -0.098345086 -0.15694886
-0.0274 0.1156504 -0.13679515
-0.079520002 -0.085238136 -0.011711416
-0.081220001 -0.080987118 -0.068960235
-0.08038 -0.08310762 -0.040340826
-0.08207 -0.078856602 -0.097589642
-0.1218 0.00020316699 -0.16469683
0.068549998 0.095569804 -0.085346512
0.096349999 0.07360176 -0.16474541
0.067199998 -0.10629856 0.031797346
0.027100001 0.11554644 0.0690009
-0.072549999 -0.10739794 0.00034792552
-0.064199999 -0.12204751 -0.0073522083
0.10485 0.014152563 -0.14729691
-0.061149999 0.11030014 -0.11774561
0.05257 -0.042926684 -0.12917833
0.077399999 0.05370155 -0.13424639
0.0197 -0.13244708 -0.019352177
-0.057999998 -0.10809494 -0.1547991
0.072499998 -0.10734772 -0.011401847
-0.02165 0.12569907 -0.077746078
0.02045 -0.12434509 -0.13054988
-0.069650002 0.098951273 -0.16519491
0.05522 -0.042596679 -0.12981832
0.054079998 -0.014197253 -0.1284778
0.049199998 -0.11059561 -0.11739987
-0.067900002 -0.042596724 -0.12759836
-0.068099998 -0.014197289 -0.12659782
-0.083700001 0.084999837 -0.076746888
0.07485 0.08014787 0.030450955
0.020850001 -0.061996695 -0.10964908
0.070330001 0.023482105 -0.13279699
0.092370003 0.0078325709 -0.14139712
0.10025 0.06765189 -0.1660955
0.045499999 0.12329888 -0.065446362
0.038800001 -0.12504563 -0.10110046
0.0045599998 0.056130689 -0.091897152
0.046349999 0.1245468 0.041401602
-0.080750003 0.093899645 -0.075296737
-0.086900003 0.082750738 -0.12129607
-0.079049997 0.092398472 -0.013247966
-0.035999998 -0.12999846 0.050396528
-0.066249996 -0.076199383 0.043997686
-0.050250001 -0.12099562 -0.10625029
-0.052200001 -0.061646443 -0.12309881
0.032450002 0.12764838 -0.044446684
-0.08495 0.085350581 -0.11559612
-0.078149997 0.09909901 -0.047697172
-0.0156 0.11624637 0.07250084
-0.025599999 0.11544644 0.069650881
-0.02905 -0.13234717 -0.015002259
-0.022600001 -0.13249815 0.036546744
0.055920001 -0.10956638 -0.078500599
0.04538 -0.11871573 -0.1029003
-0.070050001 -0.042926706 -0.12801836
-0.0252 0.12939699 0.027051969
0.080150001 0.080098264 0.010001349
-0.0242 -0.13039641 -0.056451421
-0.036499999 0.023101892 -0.12139721
-0.02485 0.11755095 -0.16734451
-0.077469997 0.09832067 -0.13299555
0.0295 0.0026523208 -0.12319758
0.073349997 -0.10714801 0.003897862
-0.036600001 0.11509655 0.064100973
-0.0557 -0.11879569 -0.10545026
0.07525 -0.093097672 -0.027351264
-0.038419999 -0.061996773 -0.10559916
-0.063069999 -0.062046733 -0.10759912
0.034299999 0.11529651 0.065600954
-0.034249999 -0.13194768 0.011197243
-0.084250003 0.061750561 -0.09084706
-0.11295 -0.014097075 -0.13784762
0.039250001 0.12179948 -0.095245823
0.05085 0.12449782 -0.011797376
-0.065899998 -0.043026723 -0.12726839
-0.034400001 -0.00099762913 -0.12214766
0.07045 0.08009769 0.039850775
-0.04225 0.044751395 -0.11704689
0.08873 0.027222158 -0.13934679
0.071800001 0.10349856 -0.028197465
-0.037549999 0.1278971 0.02355201
0.075350001 -0.090547726 -0.027501214
-0.083250001 -0.089395292 -0.15519874
-0.070150003 0.10285067 -0.13784537
-0.065250002 0.10195122 -0.16514486
-0.063950002 0.056500576 -0.086447254
0.075199999 -0.094097666 -0.027251286
-0.04115 0.12704709 0.02370199
0.060849998 -0.07559634 -0.11439925
0.017000001 0.11549639 0.07235083
0.01145 0.054750945 -0.10394695
-0.072350003 0.1013507 -0.13786539
-0.071850002 0.097451307 -0.16521496
-0.01125 0.11584636 0.073550813
0.078900002 -0.075548358 -0.0097012678
0.037749998 0.12659663 0.047701515
-0.067749999 0.11034963 -0.090896122
-0.00495 0.13009702 0.024552032
0.03035 -0.13234724 -0.01085234
-0.046599999 0.051401127 -0.11004689
-0.085900001 -0.081445836 -0.13509896
0.059599999 0.1207979 -0.011747448
0.012 0.11599635 0.073350817
-0.0836 -0.089045294 -0.15544872
-0.076200001 0.074598059 0.026450928
0.07045 0.099851064 -0.15534508
-0.018100001 0.12724863 -0.055896472
-0.074349999 -0.075499095 0.028497998
0.036049999 0.11940005 -0.12189535
-0.0264 0.11665035 -0.13484515
-0.0135 -0.1205949 -0.14429955
-0.074550003 -0.10219771 -0.016751645
0.12355 -0.0069469195 -0.15304719
0.0088499999 0.11609635 0.07355082
0.053800002 -0.11534641 -0.071150847
0.036499999 0.11655065 -0.15054484
-0.077200003 0.088698074 0.011151494
-0.0135 -0.12144488 -0.14429957
0.035700001 0.056190688 -0.091897152
-0.084100001 -0.089045294 -0.15544872
-0.032749999 0.049501229 -0.11344686
0.078400001 -0.075548291 -0.013151201
0.00044999999 0.11392043 -0.13586518
0.027550001 0.11277043 -0.13521522
0.061149999 -0.075546406 -0.11109932
0.078249998 -0.075548276 -0.014001186
0.068549998 0.065850303 -0.081497163
0.058049999 0.10595115 -0.16584477
-0.063349999 -0.12084673 -0.048651394
0.061949998 -0.1231975 -0.0071022352
-0.015869999 -0.12821577 -0.090980716
-0.01102 -0.1262653 -0.11752016
-0.040070001 -0.0029175836 -0.12259769
-0.035420001 -0.029567059 -0.1231982
0.030200001 -0.13104847 0.05124649
-0.074749999 0.074997969 0.030500857
0.043650001 -0.12869662 -0.047251567
-0.0011 -0.12249456 -0.16019927
0.01355 -0.1205949 -0.14429955
-0.043900002 -0.11459481 -0.15519921
-0.08224 -0.078366593 -0.098439619
-0.080540001 -0.082627617 -0.041190796
-0.081710003 -0.079527088 -0.071510158
0.036400001 0.12249947 -0.094815813
0.033199999 0.12010003 -0.12147535
0.065700002 -0.10604864 0.03519728
0.0392 0.12779728 0.014252186
0.11005 -0.020646676 -0.15194748
-0.032299999 0.12759657 0.050401486
0.06095 -0.1052987 0.037347253
0.025450001 -0.13114659 -0.046101641
-0.068300001 -0.10749544 -0.12909958
0.039549999 -0.12759613 -0.073851034
-0.0528 -0.12574665 -0.048601486
0.02445 -0.06199709 -0.089199476
0.039949998 -0.061997227 -0.082049616
0.03895 -0.061996654 -0.11179904
0.061000001 0.11004899 -0.057746772
0.039000001 -0.12949844 0.047846589
-0.0040500001 0.12251996 -0.12074532
-0.00575 0.12456941 -0.094045788
0.049699999 -0.12414639 -0.06310118
0.0090699997 -0.061997101 -0.088549487
0.061650001 -0.10524864 0.034797303
0.028000001 0.12804838 -0.043196704
0.063600004 0.081297472 0.050000604
-0.059799999 -0.12424747 -0.0074522486
-0.0113 -0.13189684 -0.032401919
0.045299999 0.12549831 -0.038096849
-0.045899998 -0.12504597 -0.083650798
-0.071350001 -0.10514738 -0.030451437
-0.078100003 0.074598171 0.020501042
0.03585 -0.1220452 -0.12764989
-0.00185 -0.12254474 -0.15039946
0.042800002 0.11485068 -0.14999491
-0.075750001 0.10199836 -0.016847713
-0.076650001 0.10199887 -0.043347202
-0.07745 0.10399942 -0.073846571
0.1224 0.010902729 -0.15259686
-0.036699999 -0.13159719 -0.014952245
0.083700001 0.03985187 -0.13704661
0.01268 -0.039266869 -0.12319838
0.01743 -0.013217386 -0.12259789
-7.0000002e-05 -0.13317762 0.0094672535
0.044799998 0.12664779 -0.011647337
-9.9999997e-05 -0.12014451 -0.16514914
-0.011 0.12120034 -0.138495
-0.00036999999 -0.12706551 -0.1061704
-0.069949999 0.10904963 -0.090146162
-0.035750002 0.12874748 0.0025524297
0.054200001 0.10800112 -0.16584472
0.0592 -0.11739697 -0.039901495
-0.0231 0.00035233086 -0.12141766
-0.0165 0.025851818 -0.12026718
-0.029999999 -0.1304464 -0.055351444
-0.078199998 -0.074848846 0.014698276
-0.0262 0.11335042 -0.13554522
0.02265 0.11554641 0.070900865
0.062799998 -0.10559864 0.034897294
-0.019750001 0.0529011 -0.10984686
0.06825 0.0813476 0.043450728
-0.02397 0.055950824 -0.09876702
0.0414 0.1152966 0.061001047
0.0029500001 0.12240048 -0.14739482
-0.075350001 -0.075099051 0.025848057
-0.0033 -0.079100005 0.079146951
0.0166 0.12882812 -0.031046921
-0.095200002 0.038301788 -0.13114676
-0.00055 -0.13184685 -0.032351915
0.032949999 -0.046226691 -0.12549847
0.0469 -0.12904711 -0.020852083
0.01895 -0.13304791 0.025146954
0.10465 0.061052021 -0.16609561
-0.02055 0.1158964 0.071400858
0.061749998 -0.097716399 -0.089120172
-0.03025 0.11494648 0.06785091
0.09127 0.0019026819 -0.14119726
0.0076000001 0.11689633 0.073600836
0.0093499999 -0.12604524 -0.12070011
-0.088100001 0.082100816 -0.12454602
-0.089890003 -0.047456529 -0.13285835
0.04115 0.11810008 -0.12189538
-0.052049998 -0.11109487 -0.15544915
-0.1138 0.024152232 -0.14009684
0.049699999 -0.01244731 -0.1273178
-0.048549999 -0.11269484 -0.15544918
-0.083300002 0.07579919 -0.033827886
-0.070950001 -0.10539733 -0.033551387
-0.0792 -0.074098721 0.0072984328
0.0308 0.11529648 0.06755092
0.10195 -0.047696203 -0.14934805
-0.035300002 -0.13084669 -0.040901732
-0.056200001 0.12149835 -0.03579697
0.0407 0.025151903 -0.12399713
0.064099997 -0.10096683 -0.063870713
0.058899999 -0.10171632 -0.089220241
-0.00089999998 -0.079000011 0.079246953
-0.05232 0.11774955 -0.094325915
-0.05077 0.1150501 -0.11997548
0.064000003 -0.074996099 -0.12779899
-0.045200001 0.053451013 -0.10594693
0.063249998 0.10199964 -0.083596423
-0.10328 -0.017897049 -0.13536774
-0.033050001 0.12694858 -0.053196531
-0.01555 0.12859823 -0.036396824
-0.0147 -0.13269724 -0.01115234
0.071690001 -0.078937501 -0.050540548
0.075759999 -0.085707851 -0.026111148
0.067160003 -0.085706912 -0.074860208
0.071460001 -0.085707381 -0.050490677
0.062859997 -0.085706443 -0.099239737
0.067390002 -0.078937031 -0.074910074
0.071910001 -0.072157636 -0.050590418
0.028419999 0.11370043 -0.1357152
-0.055149999 -0.11459528 -0.13064969
0.063170001 -0.095716447 -0.089070126
0.065520003 -0.098976865 -0.063820675
-0.054650001 -0.12644747 -0.0056023262
0.033599999 0.12869787 -0.017747182
0.037700001 0.00070238241 -0.12444758
-0.061500002 0.11974745 0.012752059
-0.032049999 -0.12324522 -0.12524995
-0.0045500002 -0.10449945 0.07579653
0.071149997 -0.070846029 -0.13529876
0.04355 0.082397103 0.068150274
-0.061000001 -0.1047987 0.037047271
-0.07835 -0.061146352 -0.1282987
0.0669 -0.066396125 -0.13484868
0.063689999 -0.065386839 -0.098789357
0.067659996 -0.072157174 -0.074759945
-0.072149999 -0.11299627 -0.080600627
-0.081550002 -0.080007091 -0.070660181
0.057100002 -0.11379668 -0.058251068
0.067570001 -0.095716923 -0.064370602
-0.048250001 -0.12724836 0.041696746
0.057399999 0.1100494 -0.078796364
-0.0084499996 -0.13249858 0.05909631
-0.0077999998 0.11739632 0.073500842
-0.090850003 0.078850955 -0.12834601
0.03765 0.055000883 -0.100897
-0.056200001 -0.12539794 0.017897241
0.0592 -0.10674489 -0.158399
-0.0252 0.024451852 -0.1206672
0.10805 -0.054695733 -0.16669786
-0.040100001 0.041901477 -0.1186469
-0.076300003 0.10384885 -0.04419715
0.079499997 -0.093095191 -0.15624878
0.068599999 -0.094096944 -0.064650565
0.064199999 -0.094096467 -0.089350089
0.1076 0.05550215 -0.16714571
0.036899999 0.056000728 -0.093577117
0.0121 0.056000791 -0.096917056
-0.024250001 0.056000728 -0.093577117
-0.078749999 -0.074498788 0.011798339
-0.082249999 0.059200589 -0.089797132
0.0625 0.060400579 -0.090347104
0.0099999998 0.12684877 -0.063146345
-0.061500002 -0.10494866 0.035347298
0.045000002 0.12604713 0.022501994
-0.080250002 -0.084896408 -0.10189967
-0.041450001 0.127198 -0.022397118
0.037749998 0.11479656 0.063900985
-0.065350004 0.11784749 0.012152035
0.01997 -0.012647393 -0.12274788
0.02032 -0.037546895 -0.12364834
-0.048300002 -0.12714659 -0.050351478
-0.0037499999 -0.1044994 0.072946578
-0.030950001 0.12047004 -0.12246533
-0.031849999 0.12302952 -0.097815745
0.0276 -0.11714453 -0.16674905
0.0491 0.11379674 0.055201128
-0.097050004 0.03250191 -0.13184685
-0.064850003 -0.11394574 -0.10765012
0.048149999 -0.11249481 -0.15679914
0.071350001 -0.089097321 -0.050460741
0.075649999 -0.08909779 -0.026091212
0.062749997 -0.089096382 -0.099209808
0.067050003 -0.089096852 -0.074840277
-0.0041 0.11754631 0.07385084
-0.058899999 0.12119789 -0.011347448
-0.04792 -0.062016487 -0.12029888
-0.053569999 -0.062017016 -0.092899404
-0.072580002 -0.062066451 -0.12229884
0.075099997 0.094369091 -0.047247272
-0.0023000001 -0.061746504 -0.11969889
0.10885 -0.026996564 -0.1515476
-0.060800001 -0.12334798 0.018147275
0.0152 -0.12539518 -0.1251
-0.032850001 0.1156965 0.066300951
0.01313 -0.13254714 -0.016022243
0.080700003 0.048201684 -0.13559647
0.0537 -0.10984485 -0.15769908
0.058329999 -0.0619969 -0.098999284
0.063819997 -0.061996907 -0.098709293
0.01175 -0.13074644 -0.054351471
-0.039099999 0.12324922 -0.082396045
0.03915 -0.130548 0.027146963
-0.047350001 -0.12834804 0.026697014
0.066550002 0.10199916 -0.058696907
0.038199998 0.023701927 -0.12369716
-0.0067500002 -0.10524943 0.075596519
-0.040449999 -0.12044518 -0.12949984
-0.095250003 -0.06944596 -0.14064863
0.04205 -0.046316665 -0.12694845
0.035750002 -0.022767154 -0.12504801
-0.04025 0.1257986 -0.053196553
-0.061099999 -0.11159535 -0.12999964
-0.078850001 -0.088247687 -0.031901084
-0.078550003 -0.088348158 -0.0075015565
0.01777 -0.038116891 -0.12349836
0.0788 0.093988635 -0.023277743
0.068599999 0.093910031 -0.09571635
0.075400002 0.093959108 -0.047427278
0.071999997 0.093939565 -0.071576811
0.068719998 -0.093496963 -0.064300567
-0.061900001 0.10935022 -0.12064557
0.12345 -0.010696842 -0.15334725
0.00165 0.13004676 0.038851753
-0.079230003 0.091351449 -0.16676503
-0.082670003 0.092450969 -0.14271548
0.01705 0.12674883 -0.065796293
-0.061220001 0.10410121 -0.16704479
-0.0137 -0.010697453 -0.12159787
-0.0081000002 -0.034296982 -0.12239831
0.00155 0.12964636 0.058901362
0.067500003 0.072850488 -0.098296709
-0.079599999 -0.074098632 0.0025985234
0.067100003 0.10329732 0.036151294
-0.027450001 -0.00034765177 -0.12161767
-0.029549999 0.02375187 -0.12087722
0.035 -0.12599567 -0.098900519
-0.0185 0.12884809 -0.029296955
-0.028720001 -0.061996702 -0.10937908
-0.01498 -0.061997082 -0.089519471
-0.034370001 -0.061997227 -0.081969611
0.078500003 0.094398633 -0.023097737
0.1184 -0.024096292 -0.16854721
0.046149999 -0.12949759 0.0040974277
0.1012 -0.011846974 -0.14529742
-0.036850002 -0.12189519 -0.12759988
0.00095000002 0.043451443 -0.11839689
-0.081869997 0.088399313 -0.052497286
-0.00315 -0.034246981 -0.12239831
-0.055199999 0.11934905 -0.069646366
-0.02565 -0.13154677 -0.036251836
-0.03565 0.11495101 -0.16729456
0.01125 0.082946867 0.080250055
-0.0026 -0.061646495 -0.12044886
-0.078249998 -0.091046706 -0.079950206
-0.078749999 -0.089147203 -0.056050636
0.11555 -0.035446074 -0.16854744
-0.01132 0.12989749 -9.7497199e-05
0.01262 0.12989749 -9.7497199e-05
-0.0162 0.1292979 -0.020097123
-0.061269999 0.10745069 -0.14349517
-0.058019999 0.10595118 -0.16709474
-0.062749997 0.11929794 -0.011947474
-0.0041999999 0.1191003 -0.13489512
-0.0276 0.1145004 -0.13489521
0.11065 -0.049145829 -0.16764772
0.067249998 0.10199917 -0.059146896
-0.062880002 0.10652071 -0.14346519
-0.062820002 0.10317123 -0.16701479
0.029549999 0.12050005 -0.12319531
0.0251 0.12115004 -0.1231953
0.029899999 0.12304955 -0.09999571
0.028550001 0.11875059 -0.14934485
-0.082450002 0.070999101 -0.024048168
0.0090500005 0.11732039 -0.13741508
0.032749999 0.11637039 -0.13706513
0.035549998 0.12519893 -0.069996238
0.039050002 -0.11704485 -0.15039936
0.039250001 -0.12959658 -0.049051553
-0.047249999 -0.12179556 -0.10855026
0.02685 0.12334955 -0.0998457
-0.0429 0.11389665 0.060301032
0.1348 0.0037531564 -0.16769668
0.031199999 -0.022727169 -0.12431805
0.0284 -0.046176706 -0.12476849
-0.0264 -0.061596487 -0.12099885
-0.087700002 -0.079195842 -0.1364989
-0.04645 0.11394671 0.057401087
0.10455 -0.042146292 -0.15029791
-0.082560003 -0.077396579 -0.10013956
-0.038350001 -0.13139766 0.0098472806
-0.049699999 -0.11679522 -0.13144971
0.02358 0.12130003 -0.1231253
0.02533 0.12349954 -0.099775702
0.037099998 0.082297027 0.072050199
0.054469999 0.1223683 -0.034046989
0.05522 0.12271784 -0.010547434
0.0084800003 -0.033566993 -0.12274829
0.01602 -0.011317424 -0.12244786
0.0429 0.056500595 -0.087517232
-0.079949997 -0.08559677 -0.082250059
0.056449998 -0.1255971 -0.024751941
0.065499999 -0.10314497 -0.15839893
0.1131 -0.016346725 -0.15369734
0.070299998 -0.11084758 -0.015201841
0.001 -0.12249462 -0.15724933
0.021400001 0.026851822 -0.12149715
0.058850002 0.12044836 -0.035247006
0.02475 0.12939689 0.032451868
-0.068750001 -0.099748686 0.031647466
0.13485 -0.0037966955 -0.16784684
-0.079070002 -0.086768158 -0.0090714963
-0.07903 -0.087717682 -0.03242106
0.01295 -0.13324778 0.017697094
-0.023870001 -0.023797188 -0.1222981
-0.018829999 -0.046596736 -0.12289853
-0.058249999 0.080697365 0.056200475
0.031769998 0.12017005 -0.12319531
0.032120001 0.12271956 -0.099995717
-0.0031999999 0.11764637 0.0707509
0.113 -0.043595936 -0.1676476
-0.029549999 -0.12859599 -0.079850942
-0.048900001 -0.12424605 -0.081350826
-0.0135 0.12974761 -0.0063473796
-0.071369998 0.11199785 5.2155294e-05
-0.031500001 0.11615098 -0.16729455
0.067199998 0.071300536 -0.09889672
0.060350001 -0.12369795 0.017297285
-0.043400001 0.12704758 -0.001197531
0.073109999 0.071469739 -0.058087509
0.075939998 0.076769285 -0.039307766
0.081349999 0.077601172 -0.13849585
-0.045049999 -0.11869518 -0.13119975
-0.082199998 0.091300182 -0.1007463
-0.08805 -0.078845851 -0.13674888
-0.073519997 0.10087066 -0.13544546
0.086450003 -0.031456683 -0.1406679
0.068350002 0.0030424988 -0.13282737
0.068350002 -0.018987063 -0.13362779
0.05435 0.1190488 -0.056896612
0.0030499999 0.083046839 0.081050046
0.095849998 -0.060945988 -0.14749832
-0.07999 -0.047156584 -0.1303084
-0.08444 -0.0031074409 -0.12980756
-0.087159999 -0.025286984 -0.13133796
-0.050030001 0.10967112 -0.16804466
-0.00385 -0.011247443 -0.12154788
0.00185 -0.033546999 -0.1224483
-0.0063499999 -0.011597437 -0.12151788
-0.0056500002 -0.03459698 -0.12236831
-0.074649997 0.10185014 -0.10884595
0.032850001 0.00050237234 -0.12371761
0.033349998 0.023501914 -0.12296718
-0.079240002 0.018742098 -0.12771718
-0.079750001 0.09239877 -0.028447673
0.11375 0.015952649 -0.15349674
-0.077699997 0.10199934 -0.068046719
-0.057950001 0.11494695 0.043251377
-0.00715 0.028901756 -0.12011713
0.00095000002 0.12240053 -0.14984475
0.082599998 -0.089595243 -0.1571987
-0.074450001 -0.10399709 -0.04725109
-0.00050000002 -0.13309827 0.043396603
0.050099999 0.12414829 -0.035296932
-0.0088 -0.011297442 -0.12154788
0.024700001 -0.13249716 -0.014852265
-0.0014 -0.061996516 -0.1189189
-0.0242 -0.061996512 -0.1191789
-0.01045 -0.061996896 -0.099329278
0.11545 0.03605254 -0.16804607
-0.077100001 0.1019989 -0.045367166
-0.0779 0.10199934 -0.068116724
0.0537 -0.12694752 -0.0018524084
-0.064400002 -0.11824632 -0.072900876
0.0757 0.1023481 -0.0034479632
0.0583 0.10434993 -0.10079605
0.02895 0.084496923 0.075470172
0.0037499999 -0.10354941 0.073146597
0.06645 0.082900636 -0.11559618
0.057799999 -0.11699689 -0.044551399
0.082549997 -0.090145238 -0.15724871
-0.01212 0.12396957 -0.10131566
-0.0061699999 0.12233002 -0.12316528
-0.078249998 -0.09329582 -0.12389941
0.065650001 0.11779787 -0.0067976015
0.13495 -4.6773312e-05 -0.16754678
0.054450002 -0.061996844 -0.10206922
-4.9999999e-05 0.055820867 -0.10084698
0.02245 0.055670813 -0.097947039
0.048950002 0.11280067 -0.14689499
0.0127 0.12999712 0.019252133
-0.078599997 0.10199978 -0.090796284
-0.076899998 0.1019989 -0.045297164
-0.024700001 -0.050446656 -0.12334859
0.040750001 0.12744783 -0.014947258
0.086800002 0.075401284 -0.14204581
-0.02187 -0.1325172 -0.0130723
0.067100003 0.10254731 0.037101258
-0.03435 0.12854792 -0.020897122
0.0046000001 -0.10399947 0.076096527
0.025699999 0.046601292 -0.11384691
-0.0207 0.04370144 -0.11854688
0.0017 0.044501416 -0.11804687
-0.07587 -0.099526465 -0.083880298
-0.089390002 -0.0032574132 -0.13108754
-0.092110001 -0.025436956 -0.13260794
-0.086659998 0.018912131 -0.12955715
-0.094839998 -0.047606502 -0.13413835
-0.082209997 -0.025137013 -0.13005798
-0.078900002 -0.087298155 -0.0085515166
0.034949999 -0.13149799 0.027146945
-0.03115 -0.12389528 -0.12120005
0.039500002 -0.13069698 -0.026652005
0.097450003 0.048951831 -0.14394629
-0.0064500002 -0.12094484 -0.1465995
-0.02235 0.055870865 -0.10076699
-0.04445 0.055820808 -0.097717039
0.0361 -0.13159736 -0.0064524096
0.057100002 -0.12499796 0.019047227
0.13455001 0.0075530824 -0.16764662
0.033550002 -0.1186948 -0.15094937
0.0074999998 0.027821785 -0.12053715
-0.046950001 -0.12889698 -0.027901944
-0.045600001 0.12609802 -0.023347124
-0.0097700004 0.12711866 -0.057616442
-0.01333 0.12556912 -0.079476058
0.099399999 -0.054796085 -0.1486982
0.053399999 -0.11896654 -0.060671121
0.036600001 -0.12839617 -0.070501119
0.05711 -0.045786604 -0.13054836
0.01425 -0.12772566 -0.097150587
0.017349999 -0.12936607 -0.075251043
0.052900001 0.10840115 -0.16789468
0.0537 0.11100067 -0.14589505
-0.117 -0.026596677 -0.14594769
-0.083400004 -0.090195328 -0.1523488
-0.067599997 -0.099948734 0.034097418
-0.079740003 -0.025057025 -0.12941799
-0.08196 -0.0030374548 -0.12916757
-0.077009998 -0.0032874728 -0.1279676
-0.077509999 -0.0470866 -0.1296784
-0.084190004 0.018992119 -0.12891714
0.11735 0.028952692 -0.1687462
0.073349997 0.098548844 -0.038867354
0.068049997 0.10084922 -0.060226902
0.033599999 -0.13054655 -0.048051592
-0.01475 0.12959777 -0.012797258
0.066100001 -0.072546095 -0.1302989
0.073849998 0.064351305 -0.13179623
-0.05302 0.11127068 -0.14649504
-0.05528 0.10723117 -0.16809469
0.0082 0.12949638 0.058551364
-0.055769999 0.11000068 -0.14549509
0.05886 -0.045786593 -0.13114837
0.05799 -0.023757039 -0.13004796
0.05886 -0.0017374724 -0.12954754
0.071050003 -0.090547256 -0.051880743
-0.069669999 0.1151482 -0.022167357
