# .PCD v0.7 - Point Cloud Data file format
VERSION 0.7
FIELDS x y z
SIZE 4 4 4
TYPE F F F
COUNT 1 1 1
WIDTH 1265
HEIGHT 1
VIEWPOINT 0 0 0 1 0 0 0
POINTS 1265
DATA ascii
-0.00045912192 0.024429059 0.045149125
-0.0093389275 0.023129109 0.046368927
-0.00049909018 0.023359101 0.046759088
-0.016118806 0.011279566 0.045818809
-0.018288782 0.0233691 0.045008779
-0.024268692 0.023699088 0.043608695
-0.0080889417 0.011279566 0.04685894
-0.038328558 0.023189107 0.03653856
-0.034138583 0.023129109 0.039408583
-0.029488627 0.022959115 0.041828629
-0.043059785 0.023059111 -0.031900216
-0.045709662 0.024109073 -0.028080339
-0.050549425 0.023179108 -0.020670574
-0.05274925 0.024009077 -0.013930747
-0.023930378 0.022569129 -0.043519624
-0.026880302 0.023329102 -0.042609699
-0.0306702 0.022569129 -0.041059803
-0.03446009 0.023449097 -0.038999911
-0.03870995 0.023259103 -0.03603005
-0.0071707536 0.023819083 -0.046289247
0.0033590391 0.023039114 -0.046549037
-0.013740613 0.023579093 -0.045589384
-0.016120568 0.011279566 -0.045619432
0.026438752 0.0233691 -0.038438749
0.039468754 0.023219107 -0.025168756
0.018738816 0.023009114 -0.042738814
0.011868903 0.023069112 -0.045068905
0.032208733 0.023169108 -0.033748735
0.041268725 0.020609206 -0.025038723
0.056189526 0.0082596811 0.031590473
0.056228314 0.0085596703 -0.031328313
0.055738393 0.016969346 -0.027648395
0.042498767 0.024379062 -0.021448769
0.056498501 0.024499057 -0.021308502
0.048458513 -0.014759432 -0.028858513
0.042879585 0.024379062 0.021410413
0.037379768 0.024499057 0.025260232
0.010160638 0.024499057 0.043279365
-0.015188873 0.024499057 0.043348871
0.020450395 0.024389062 0.040909611
0.030440075 0.024269065 0.034309924
0.0079707168 0.024279065 0.045229282
-0.0057490077 0.024309063 0.045779005
-0.042938575 0.024279065 0.030988578
-0.03292862 0.024429059 0.038848616
-0.03872861 0.024499057 0.03356861
-0.049378652 0.024309063 0.02077865
-0.050078753 0.024499057 0.014728753
-0.053798813 0.024299065 0.0079388116
-0.046879541 0.024499057 -0.02307046
-0.051969182 0.024499057 -0.0095408168
-0.037249949 0.024499057 -0.034630053
-0.029110221 0.024309063 -0.040649775
-0.018250495 0.024289064 -0.0440295
-0.024890311 0.024499057 -0.041049689
-0.0061907317 0.024499057 -0.044199269
0.027898768 0.024399061 -0.03607877
0.015438867 0.024139071 -0.043438867
0.0056190221 0.024429059 -0.045169026
0.024608815 0.024499057 -0.036938816
0.037108805 0.024499057 -0.025048802
0.029998735 0.0103996 -0.035728734
0.011358898 0.010339602 -0.045868896
0.035148758 -0.018749278 -0.029308759
0.036628749 -0.017099343 -0.028478747
-0.00067087228 -0.019089265 -0.045979124
0.030298809 0.010949578 -0.031588808
0.034898732 0.016019383 -0.030988732
0.036678743 0.010879581 -0.028568745
-0.0010808684 0.016709358 -0.046189133
0.0031690861 0.016969346 -0.044299088
0.0075890422 0.01089958 -0.042159043
-0.0022808649 0.012859505 -0.047209136
-0.0020908746 0.0039698472 -0.047519125
-0.0026908414 0.0024499057 -0.046389159
-0.002550849 -0.01688935 -0.046649151
-0.0026908414 -0.0044498285 -0.046389159
0.037018724 -0.012279527 -0.029348722
0.037888642 -0.0040598437 -0.032528643
0.035948724 -0.013189493 -0.030438721
0.034318715 0.0032298756 -0.032448716
0.034908723 0.010739586 -0.031478722
0.037488677 0.009129649 -0.031228678
0.034378711 -0.0047098189 -0.032418709
0.003829082 -0.019099263 -0.043849081
0.031288795 -0.019099263 -0.031088801
0.0096289255 -0.018859273 -0.046198923
0.027688736 -0.018839275 -0.038008738
0.032428723 -0.018929271 -0.033918723
-0.0015308532 -0.0044498285 -0.045849148
0.0018690521 0.010489596 -0.047369052
0.0064489725 0.010689588 -0.046918977
-0.0022408569 0.01090958 -0.046739142
0.024468748 -0.0070297294 -0.040498752
0.02965872 -0.010589592 -0.036738724
0.0015790558 -0.012129532 -0.047469057
0.026818736 0.00039998459 -0.038938735
0.019838791 -0.0076197064 -0.042988788
0.020818785 -0.018539287 -0.042278782
0.0053989897 -0.013979462 -0.047088992
0.0054289927 -0.01868928 -0.046898995
0.016428832 -0.017529326 -0.044258829
0.031408716 0.0033998692 -0.035358716
0.021388777 0.0028998882 -0.042228773
0.028358731 0.01011961 -0.037578728
0.032798715 -0.01352948 -0.033858716
0.013498866 -0.0088196602 -0.045428865
0.017768815 0.010039614 -0.043768816
0.015268842 0.0026198991 -0.044868842
0.0086589335 -0.0040398445 -0.046728931
0.023088763 0.010109611 -0.041098766
0.010828902 0.0033398715 -0.0461789
0.034228738 -0.012759509 -0.031388737
0.032258742 -0.014849428 -0.03311874
0.0019591055 -0.012789507 -0.044509105
-0.0020308748 -0.012329525 -0.047469124
0.0023290957 -0.017479328 -0.044639096
-0.00071087538 -0.015539402 -0.046179123
0.0021090461 -0.013159493 -0.047439046
0.0043690223 -0.01661936 -0.046419021
0.00073911285 0.013399484 -0.045339115
0.0052990662 0.013579478 -0.043209068
0.0029590663 0.011119572 -0.045529068
0.0063590012 0.013879466 -0.045519002
0.033428762 -0.017909311 -0.030788762
0.037148684 -0.016249374 -0.031148685
0.032478787 0.011739548 -0.030538786
0.037178684 0.012939502 -0.031128684
0.032608729 0.014209453 -0.033238731
4.9066068e-05 -0.015849389 -0.048459068
0.0018390485 0.01429945 -0.047589045
0.060948238 0.010949578 -0.030528238
0.0619886 0.030628821 -0.010858598
0.056548562 0.026898965 -0.018228561
0.056508686 0.030228836 -0.011888683
0.056698788 0.031938769 -0.0062787873
0.056748912 0.032528747 0.00010109063
0.056499034 0.031938769 0.0063409656
0.056499142 0.030248836 0.012070855
0.056549266 0.026898965 0.018430736
0.068409234 0.015589399 0.028630765
0.071478277 0.027288949 -0.017618284
0.071498066 0.014359447 -0.029038064
0.071478017 0.0082296832 -0.031348024
0.071477994 0.00011999538 -0.032338005
0.071228012 -0.0049898075 -0.032018013
0.071368054 -0.012919502 -0.02986805
0.071468085 -0.016499365 -0.027948085
0.071068197 -0.023719087 -0.022308201
0.071488328 -0.02880889 -0.014968336
0.074499168 0.0082596811 0.031170834
0.074509166 0.0045998232 0.031460825
0.074489087 0.0043698321 0.026570922
0.071489118 0.0056597819 0.025750881
0.074499093 0.0093196416 0.027670901
0.074528694 -0.032078762 0.0067813043
0.074508712 -0.026178991 0.0078712823
0.071498796 -0.027438944 0.0087612076
0.071498685 -0.029468866 0.0029313201
0.074508615 -0.028398907 0.0028813791
0.071528718 -0.025879003 0.0050312802
0.071528219 -0.024049073 -0.020808224
0.071578182 -0.019399254 -0.022778183
0.071688071 -0.0085396711 -0.028758066
0.071498193 0.022699127 -0.022488192
0.071498238 0.024819044 -0.020078236
0.07152845 0.029208874 -0.0089684501
0.071528547 0.031378794 -0.0037685502
0.074477956 -0.0049598091 -0.031867951
0.074538007 -0.0083996765 -0.028458018
0.071498126 -0.0045598242 -0.025778128
0.074498057 -0.0036498595 -0.026258061
0.071438052 -0.0023499094 -0.029238062
0.074497983 -0.0026698972 -0.030097986
0.074498408 0.0311388 -0.0080684107
0.074508511 0.029978845 -0.0026885138
0.071498558 0.02621899 -0.0033285595
0.074488431 0.026138995 -0.0071784277
0.071548507 0.02569901 -0.0056285141
0.074509002 -0.022989115 0.02302099
0.071499042 -0.018539287 0.021810958
0.07450898 -0.018539287 0.021781014
0.074498907 -0.019989232 0.017771091
0.071518965 -0.019489249 0.01798103
0.071488969 -0.022649128 0.018081028
0.074498929 -0.02365909 0.019091068
0.071489125 -0.014089457 0.02634087
0.074509129 -0.013459482 0.029490866
0.074499123 -0.0087396642 0.029010875
0.07148914 -0.0082696816 0.027270852
0.074509047 -0.009619629 0.024990954
0.071499094 -0.011009576 0.024200911
0.074489065 -0.013579478 0.025400944
0.074489132 0.010009615 0.029130874
0.074499123 0.014359447 0.028980875
0.074499033 0.013629475 0.024290966
0.071499094 0.010579593 0.024270909
0.074499048 0.0099196183 0.025260948
0.071509056 0.020369215 0.022540942
0.074498981 0.024289064 0.021731015
0.074508891 0.022919117 0.017081104
0.071498945 0.020409213 0.016751055
0.07448893 0.019149262 0.018621076
0.074498996 0.020339217 0.022281006
0.074448146 -0.023649089 -0.021948144
0.074488148 -0.018549286 -0.02205814
0.071498267 -0.023239106 -0.018438268
0.074508235 -0.021139186 -0.017208233
0.071498282 -0.019519247 -0.017648285
0.074488051 -0.0081996843 -0.027188042
0.074497983 -0.012189531 -0.030037988
0.07449805 -0.014169455 -0.02677805
0.071488135 -0.01348948 -0.025218137
0.074508101 -0.011839543 -0.024108103
0.071528152 -0.0096796276 -0.024408154
0.074458085 0.014859429 -0.025128081
0.074488007 0.012449521 -0.029597996
0.071498141 0.014599438 -0.025008142
0.071488075 0.0097796237 -0.028308079
0.074498042 0.0094496356 -0.027188042
0.071508162 0.01091958 -0.023908164
0.074498095 0.010719587 -0.024238098
0.071498297 0.02284912 -0.0168583
0.074498244 0.020639205 -0.016688244
0.074498184 0.024949038 -0.019768186
0.074508131 0.020789199 -0.022518132
0.071498223 0.019269258 -0.021058217
0.071528286 0.019569246 -0.017498286
0.071498074 0.003429868 -0.028468076
0.074508041 0.0026298987 -0.027208043
0.074487954 0.0019899234 -0.031977952
0.07451801 -0.0026698972 -0.028588014
0.071498118 0.0010499596 -0.026308117
0.071498394 0.023429098 -0.011888394
0.071498193 -0.013549479 -0.02249819
0.071518138 0.0077297026 -0.025028141
0.071498886 0.022639127 0.013521116
0.071509108 -0.0076997033 0.025240891
0.071498744 0.025589015 0.006361254
0.07149858 -0.026258988 -0.002418577
0.071498424 -0.024139071 -0.010378423
0.071498856 -0.023449097 0.012021146
0.07149902 0.016529363 0.020530982
0.071508244 0.017259335 -0.019718243
0.077028021 -0.0038398521 -0.025968019
0.076998055 -0.010619591 -0.023938058
0.076998115 -0.01579939 -0.020938115
0.076998211 -0.020949194 -0.015888212
0.076998368 -0.025189029 -0.0075883716
0.076998487 -0.026198991 -0.0015484878
0.076998554 -0.026198991 0.0017514488
0.076998703 -0.024409059 0.0097612944
0.076998904 -0.016699357 0.020291092
0.076998971 -0.011909542 0.02348103
0.076999016 -0.0036898579 0.026050981
0.077009015 0.0053897924 0.025970984
0.076998614 0.025789008 0.0050213854
0.076998785 0.022559132 0.013741218
0.076998211 0.020729201 -0.01597821
0.076998316 0.024149071 -0.010478315
0.076998018 0.002469905 -0.026018016
0.076998077 0.012649513 -0.022898076
0.076998487 0.026198991 -0.0015484878
0.076998837 -0.020229222 0.016831158
0.076998554 0.026198991 0.0017514488
0.076998897 0.017499326 0.019711103
0.076998957 0.013139495 0.022901041
0.046799064 0.024499057 -0.0017690648
0.037239287 0.024499057 0.00011071484
0.016010392 -0.020169223 0.036359608
0.056498915 0.024499057 0.00010108583
0.01632899 -0.020279219 -0.036108989
0.015630409 -0.020329218 0.036909591
0.01661039 -0.020499211 0.036819611
0.015948998 -0.019199261 -0.036049001
0.015348958 -0.020419214 -0.038818955
0.016270382 -0.019199261 0.036099616
0.015998947 -0.020499211 -0.038808942
-0.043499712 -1.999923e-05 -0.028700285
-0.043498605 1.999923e-05 0.028898604
-0.045638576 0.00040998423 0.028158579
-0.045579657 -0.00036998573 -0.027940338
-0.045868568 5.9997688e-05 0.02840857
-0.045488589 0.00095996301 0.027898587
-0.04583966 -4.9998074e-05 -0.028200341
-0.043498613 0.00082996802 0.028398614
-0.043499704 0.0008099688 -0.028200297
-0.045459658 -0.00078996958 -0.027700342
-0.044498608 0.00049998076 0.027898606
-0.043498624 0.00049998076 0.027898625
-0.043499693 0.00039998459 -0.027700305
0.056499004 0.027358945 0.004810995
0.014630444 -0.019159263 0.037699558
0.035939824 -0.0033398715 0.026990172
0.018658949 -0.019149262 -0.035858952
-0.0036590539 -0.0033298717 0.045469053
0.0368798 -0.0017999307 0.026600197
0.036938779 -0.0018299295 -0.02643878
-0.0043307967 -0.001659936 -0.045709204
-0.0042190258 -0.001869928 0.046389025
0.035929825 -0.0014499441 0.026920173
-0.0040608216 -0.0019599246 -0.046739176
-0.0042008096 -0.0018999269 -0.046259191
0.051599011 -0.028498903 0.00017099014
-0.0042290371 -0.0016499364 0.045779034
0.037609808 -0.0027998921 0.027440196
0.037129801 -0.002519903 0.0268302
0.036599811 -0.002519903 0.026630191
-0.0033190651 -0.0024999038 0.045229066
0.036428791 -0.0024899042 -0.026568785
0.037188772 -0.0024899042 -0.026658772
-0.0040690177 -0.0024599053 0.046949018
0.04543912 -0.028498903 -0.00011912286
-0.0041107968 -0.0023799082 -0.045499202
0.035928793 -0.002309911 -0.026728794
-0.0039990461 -0.0022399139 0.045569044
0.036149822 -0.0022299141 0.026820181
0.056558914 -0.028458904 0.00022108467
-0.0036008009 -0.0020499211 -0.045209199
0.037718743 -0.0019499249 -0.027478745
0.01755894 -0.019099263 -0.03746894
-0.0036290565 -0.0014999423 0.045369059
0.01781041 -0.019019268 0.039099589
0.042089414 0.024499057 0.011750584
-0.033190131 -0.013959463 -0.040119868
-0.035310071 -0.013929464 -0.038839929
-0.031340186 -0.013959463 -0.041099813
-0.037100006 -0.013959463 -0.037629992
-0.028880255 -0.013719472 -0.042159744
-0.028048636 -0.013669474 0.042718638
-0.039478548 -0.013709472 0.035938546
-0.041438542 -0.013649475 0.034228545
-0.043219786 -0.013609475 -0.032160211
-0.030018616 -0.01376947 0.041908614
-0.025798665 -0.013539478 0.043508667
-0.02693031 -0.013729471 -0.042939689
-0.041739844 -0.013659474 -0.033720158
-0.042948544 -0.013449483 0.032658543
0.036219835 0.0014499441 0.027630163
-0.035708562 -0.013559477 0.038798563
-0.024298687 -0.013599477 0.043958686
-0.037438557 -0.013559477 0.037618559
-0.044318546 -0.01348948 0.031128546
0.015428932 -0.028478904 -0.040008932
-0.025430346 -0.013289489 -0.043409653
-0.03364858 -0.013289489 0.040068582
-0.0402999 -0.01325949 -0.0350901
-0.0317486 -0.013319487 0.0410886
-0.024010383 -0.013279488 -0.043839615
0.056508873 -0.029608861 -0.0022088694
-0.038669955 -0.013299488 -0.036470044
0.020458864 -0.01897927 -0.03863886
0.038159817 0.00055997848 0.028630182
0.036478754 0.00060997647 -0.028038757
-0.0025191177 0.024499057 0.043319117
0.038238712 0.0009899619 -0.028588712
0.051649194 0.024499057 0.0098708048
0.041948933 0.024499057 -0.013408935
0.037309527 0.024499057 0.012680474
0.037169047 0.024499057 -0.012469045
0.018288976 0.011109573 -0.034968972
0.035968818 -0.028498903 -0.025398817
0.018538972 0.012149532 -0.034868971
-0.011220675 0.011649551 -0.046299327
-0.051018968 0.024499057 0.0025889678
-0.007940745 0.011769546 -0.046649255
0.0256302 -0.020499211 0.036109794
-0.036290038 0.011699549 -0.038249962
-0.025698664 0.011909542 0.043588668
-0.024198687 0.011849544 0.044048686
-0.036598559 0.011599553 0.038228557
-0.028870258 0.011669551 -0.042239744
-0.050559148 -0.028498903 -0.0061108554
-0.032608587 0.011529556 0.040688589
0.018448912 0.010549594 -0.037998915
-0.040288545 0.011659551 0.035338543
-0.034510098 0.011729549 -0.039459903
-0.040049911 0.011629552 -0.035380088
-0.043928545 0.011699549 0.031678542
0.01919896 0.011749547 -0.03488896
-0.038419966 0.011599553 -0.036760032
-0.026920311 0.011659551 -0.04301969
0.0040190141 -0.0007199723 -0.047199015
0.0047808196 -0.00088996574 0.047369182
-0.04255854 0.011739548 0.03321854
-0.042229827 0.011529556 -0.03332017
-0.038318552 0.011599553 0.03703855
0.036848735 -0.00069997302 -0.028958734
-0.034498572 0.011559554 0.039668575
-0.03027861 0.01144956 0.041898612
0.028920081 0.02444906 0.033089917
-0.028308634 0.011539556 0.042708632
-0.04370977 0.011579554 -0.031770229
0.0026208651 -0.0009899619 0.047569137
-0.032610148 0.011279566 -0.04047985
0.037259862 -0.001089958 0.030220136
0.017248986 0.010699589 -0.035438988
-0.025440346 0.011279566 -0.043479651
0.051088404 -0.0062197605 -0.031818405
0.001719054 -0.00081996847 -0.047419053
-0.030760206 0.011279566 -0.041469794
-0.024030384 0.011279566 -0.043899618
0.036849856 -0.00091996457 0.029190147
-0.04439868 0.024499057 0.02414868
-0.050549436 0.010319603 -0.021350561
-0.026968723 -0.028468903 0.039258726
0.0064006615 -0.019929232 0.040779337
0.051648781 0.024499057 -0.011538783
0.026090104 -0.018829275 0.031509895
0.026098894 -0.018909272 -0.031318892
-0.050318606 0.010459597 0.022148605
0.037258696 -0.0015799392 -0.0302887
0.025750117 -0.020169223 0.031809885
0.0062706666 -0.020159224 0.040909335
-0.0059090476 -0.028498903 0.043549046
0.056498706 0.024499057 -0.010598708
0.05649912 0.024499057 0.01081088
0.017930334 0.010699589 0.035289668
0.018290332 0.012329525 0.035549667
0.020678815 0.010369601 -0.040798817
0.006719091 -0.02001923 -0.040499091
0.025880111 -0.019939233 0.031679887
0.006759088 -0.020309217 -0.040599089
0.025908891 -0.020239221 -0.031608894
0.018110333 0.011349563 0.035399668
0.025878895 -0.019949233 -0.031508893
-0.0061390321 -0.028418906 0.04414903
0.051798522 0.020689202 -0.024998523
0.0067406506 -0.019099263 0.040539347
0.025180144 -0.020419214 0.032639854
0.0060806763 -0.02024922 0.04118932
-0.0023208617 -0.0064597512 -0.047079138
-0.048739538 0.0103996 -0.02486046
0.018108962 0.011999538 -0.035818961
-0.052039351 0.010419599 -0.018380648
0.025370134 -0.020329218 0.032359865
-0.055648923 -0.010159609 9.8926677e-05
0.038609825 0.0037198567 0.029590173
-0.042899676 -0.028498903 -0.026140323
-0.052248649 0.010289604 0.017998647
0.025028784 -0.020499211 -0.038098786
-0.047059625 -0.010079612 -0.027450377
0.038608689 0.0038298527 -0.02938869
0.0075406451 -0.020499211 0.041049354
0.025670134 -0.020499211 0.03259987
0.01865883 -0.018849274 -0.042098831
0.04679865 0.024499057 -0.023178652
0.0073390878 -0.019449251 -0.040059086
0.017620355 0.011999538 0.036109641
0.046939544 0.024499057 0.023390453
0.0071790894 -0.019199261 -0.040129092
0.024718909 -0.019199261 -0.031958908
0.051609475 0.021629168 0.024370523
0.0062590716 -0.020389214 -0.041959073
0.024438841 -0.020459212 -0.035688844
-0.054149188 -0.010239606 -0.012020811
0.0070606554 -0.020419214 0.041089345
-0.04938877 -0.028498903 0.014568768
0.0076606246 -0.019449251 0.040109377
0.024878906 -0.019449251 -0.031878904
0.024880139 -0.019449251 0.032079861
0.0076606246 -0.019199261 0.040109377
0.024880139 -0.019199261 0.032079861
-0.015540522 0.024499057 -0.042619478
-0.045408547 -0.0093496395 0.029978549
-0.045099713 0.0094296364 -0.030160287
-0.04627857 0.0093496395 0.028108567
0.013690531 -0.028498903 0.041259471
-0.046239659 0.0093796384 -0.028690336
-0.046238553 -0.0093796384 0.028888553
-0.045068577 0.0092296442 0.028898574
-0.045068577 -0.009209645 0.028898574
-0.015008851 0.024009077 0.044688851
0.047378507 0.011299565 -0.030278504
0.0072390535 -0.020499211 -0.041939054
0.024758836 -0.020499211 -0.035678837
-0.045129713 -0.0090296529 -0.030170286
-0.047809586 0.0089996532 -0.026380412
-0.043499712 0.0091996463 -0.028700285
-0.043499712 -0.0092396438 -0.028700285
-0.043498605 -0.0091996463 0.028898604
-0.043498605 0.0092396438 0.028898604
-0.0039490154 -0.009209645 0.047189016
-0.0039308295 -0.0091896458 -0.046989169
-0.024058744 0.024459058 0.041098747
0.056498859 0.031078804 -0.0027788586
-0.045568582 0.0095596323 0.028028583
-0.045718577 -0.0087396642 0.028288575
0.017420424 0.010509595 0.039459575
0.029320054 -0.028498903 0.032119948
-0.046269663 -0.0090896497 -0.028710337
-0.045418546 0.0090396516 0.029978549
0.0074990015 -0.020499211 -0.044359002
0.0075007132 -0.020499211 0.044559289
0.028440123 -0.020499211 0.034859877
-0.046498559 0.0089996532 0.028358558
-0.046248555 0.0090196524 0.028898552
-0.046729639 0.0089896536 -0.028040359
-0.04549966 -0.0093796384 -0.027820339
-0.045649663 0.0086396672 -0.028070338
-0.0036307997 0.0044998266 -0.045169204
-0.0036290565 0.0044998266 0.045369059
0.0069190594 -0.020459212 -0.041949056
-0.019558793 -0.028298911 0.043168794
-0.045898568 0.0090396516 0.02840857
-0.04582857 -0.0089196563 0.02840857
-0.04643856 -0.0089496551 0.02835856
0.047888927 -0.028498903 -0.0079289256
-0.046489649 -0.0088796578 -0.028200354
-0.046508666 0.024389062 0.022858664
-0.045498587 -0.0079196952 0.027898587
-0.045488589 0.0098296218 0.027908588
-0.046379648 0.0088196602 -0.02819035
-0.045899659 -0.0088996571 -0.028200341
-0.045789663 0.008799661 -0.028190339
-0.04349862 -0.0079896925 0.028148619
-0.043498609 0.0096396282 0.028648611
-0.054438893 -0.020659205 0.0030088939
-0.043499697 -0.0079996921 -0.0279503
-0.043499708 0.0096096303 -0.02845029
-0.045788575 0.009209645 0.028278574
-0.045479659 0.0079996921 -0.027700342
-0.045449656 -0.0095896311 -0.027700342
-0.052888997 0.024399061 -0.00080100278
0.024928859 -0.020389214 -0.034328859
0.046629645 0.016289372 0.028250353
0.047128543 0.015499403 -0.028438546
0.0076907561 0.0020799199 0.046969242
0.04929937 0.024499057 0.016630629
-0.045769658 -0.0090596508 -0.02808034
-0.043998618 -0.0081496863 0.027898615
-0.044998597 -0.0081496863 0.027898597
-0.043998618 0.0091496482 0.027898615
0.018650463 0.010329602 0.04265954
-0.043498624 -0.0081496863 0.027898625
-0.043498624 0.0091496482 0.027898625
0.030858809 0.024499057 -0.030988811
-0.045568582 -0.0081996843 0.028028583
-0.043499693 -0.0081996843 -0.027700305
-0.043499693 0.0089996532 -0.027700305
0.01355059 -0.018879274 0.04417941
-0.045539662 0.0082196835 -0.027820341
0.047699679 0.0093396408 0.031230317
0.048048459 -0.0036898579 -0.032128457
0.032098714 -0.0050598052 -0.034608714
0.05301936 -0.025929002 0.019710641
0.047329675 -0.011539556 0.030480323
-0.04349862 0.0093096411 0.028148619
0.047988564 -0.018499289 -0.026688563
-0.044498608 0.0093696397 0.027898606
0.056498844 0.028798891 -0.0035388439
0.056499165 0.025929002 0.013160834
0.0099707032 0.0019099264 0.046509299
-0.0053007486 -0.028478904 -0.044189252
0.056499179 0.028218914 0.01393082
0.022420231 -0.019139262 0.034489769
0.006840656 -0.019179262 0.040919345
-0.043498613 -0.0083896769 0.028398614
0.036159821 0.0050798045 0.026850179
0.035709832 -0.011759548 0.027120166
0.026068887 -0.019169262 -0.031858884
0.011239016 -0.019119265 -0.039859015
0.047818482 0.0089296559 -0.031208478
-0.046748556 0.0083996765 0.028248556
-0.0035590564 -0.011749547 0.045459058
-0.0037590521 0.0050798045 0.045469053
-0.043499704 -0.0084096761 -0.028200297
-0.043499697 0.009209645 -0.0279503
0.048028465 0.0068597361 -0.031658467
0.036919802 0.0065597477 0.0266202
0.036849804 -0.010169609 0.026570197
0.047779687 -0.0083796773 0.031450313
0.036948778 0.0064997501 -0.026448781
0.036938779 -0.010159609 -0.02642878
-0.029870166 -0.028458904 -0.038529832
0.047999691 0.0068897344 0.031870309
0.047308501 -0.010989578 -0.030498503
-0.0043107974 0.0066397442 -0.045709204
-0.0043507963 -0.0099596167 -0.045709204
0.049228717 0.024499057 -0.017358718
-0.0041690227 -0.01013961 0.04661902
-0.0042590294 0.0063997535 0.046149027
0.048249558 -0.020729201 0.025120445
0.035929825 0.006809738 0.026920173
0.035919826 -0.0097096264 0.026920173
0.04768848 -0.0081496863 -0.031298481
-0.00026090929 -0.0040798429 -0.047489092
0.054109111 -0.028458904 0.0080308877
0.047769703 0.0034598669 0.032370299
-0.0040708208 -0.010179608 -0.046699181
-0.0040508229 0.0062497593 -0.046769176
-0.020288751 -0.02024922 0.044598751
0.048189703 -0.00091996457 0.032610297
-0.0042808028 -0.010079612 -0.045989197
-0.0041208169 0.0062797582 -0.046529185
0.049149208 -0.028498903 0.0079707922
0.054048814 -0.028498903 -0.0076388121
0.048188448 -0.00077996997 -0.032418445
-0.0042108088 -0.010109611 -0.046229191
-0.0042690346 0.0065097497 0.045849036
-0.0041890391 -0.0098096216 0.045719039
0.037689805 -0.010949578 0.027610196
0.037529804 0.0053497944 0.027270198
-0.0020608748 -0.004179839 -0.047489129
-0.0041808104 0.0063997535 -0.046259191
0.048888609 0.022559132 -0.023168614
-0.0041790335 -0.0099196183 0.046019033
0.036969803 -0.010519595 0.026690198
0.037289798 0.0054897885 0.026960198
0.036699802 -0.010519595 0.026590195
0.036489811 0.0054897885 0.026670188
0.048309583 -0.018719278 0.026780413
-0.0030490728 -0.010509595 0.045109071
-0.0035890576 0.0054997881 0.045359056
0.03617879 0.0054997881 -0.026648792
0.036678784 -0.010489596 -0.026498783
0.037058774 -0.010489596 -0.026538776
0.037318766 0.0054997881 -0.026778765
-0.0040490176 0.0055097877 0.046999015
-0.0040890183 -0.010439598 0.046909019
0.04480898 -0.028498903 -0.0080689825
0.046069261 -0.028498903 0.0078307353
0.033678763 0.023809083 -0.030618763
-0.0042407969 -0.010319603 -0.045609202
-0.0039807972 0.0055597858 -0.045389201
0.037759881 -0.0046598208 0.03150012
0.035928793 -0.010219606 -0.026728794
0.035928793 0.0055897851 -0.026728794
-0.049229458 0.024059074 -0.021010544
-0.055588856 0.0074397135 0.0038588555
-0.055589002 0.0074397135 -0.0036609997
0.037209801 -0.010669589 0.026990198
0.047889709 0.0006799738 0.032630291
-0.0039290483 0.005629783 0.04551905
-0.0040690433 -0.01009961 0.045609042
0.036269818 0.005629783 0.026770182
0.036039826 -0.01009961 0.026870176
0.056528766 -0.028478904 -0.0076087653
0.056589067 -0.028428905 0.008060934
0.03617879 -0.010309603 -0.026648792
-0.0027390523 0.0076997033 0.046469055
0.071498901 -0.027868927 0.014221103
-0.020108745 -0.0066397442 0.045118745
-0.020110477 -0.0066397442 -0.044919524
-0.0037307993 0.0057297791 -0.045239199
-0.0034808025 -0.0098196222 -0.045169201
-0.020000471 -0.019929232 -0.044469528
-0.050598681 -0.028068919 0.017778683
0.03757875 0.005769778 -0.027188754
0.037848737 -0.0096796276 -0.027758738
-0.0063707805 0.0070897271 -0.046909221
-0.05569895 0.0076197064 -0.0011810496
-0.055698901 0.0076197064 0.0013789012
0.076998346 0.023459097 -0.0087583484
0.049259502 0.022599131 0.023330498
-0.0041190218 0.0058097765 0.046709023
0.036438789 0.0058297757 -0.026578786
0.037198771 0.0058297757 -0.02666877
0.037169803 0.0058497745 0.026850197
0.03663981 0.0058497745 0.026660193
0.054099292 -0.027448945 0.017460706
-0.0037308007 -0.0099896155 -0.045309201
0.036369815 -0.010939579 0.026770184
-0.0032190674 -0.01091958 0.045229066
-0.0040907972 0.0059197717 -0.045489203
-0.0040390436 0.0059197717 0.045629043
0.048508558 0.018789276 -0.026338561
0.024418872 -0.019099263 -0.03427887
0.010689011 -0.019099263 -0.040659014
-0.0032390647 -0.028308911 0.045339067
0.071508862 0.028208913 0.012491136
-0.042059746 0.024499057 -0.028850256
-0.041828625 -0.028468903 0.029628625
-0.012400653 -0.0067797387 -0.046289347
-0.020188751 0.017489325 0.044708751
-0.00350906 -0.0089996532 0.045319062
-0.0037390534 0.0059997691 0.045429055
0.037588753 -0.0099496171 -0.027358748
0.049188573 -0.0207792 -0.024868576
-0.012718861 -0.0066397442 0.046458859
0.036159821 0.0060297674 0.026820181
-0.050048705 -0.028188914 0.017148707
0.056508984 -0.031538785 0.0036310181
0.0075589526 0.0033298717 -0.046818953
0.038749829 0.0067297411 0.029890172
0.038748685 0.0067297411 -0.029688681
0.0091489302 -0.01144956 -0.04645893
-0.0078189969 0.024469057 0.044248998
-0.042378604 -0.028348908 0.030258602
0.023240201 -0.019159263 0.033689801
0.041379604 -0.028498903 0.020880396
0.016068913 0.011999538 -0.040448911
0.024010217 -0.019069266 0.035189785
0.011610605 -0.018969269 0.043009397
0.054849524 0.012779509 0.029990479
-0.0038990478 -0.01064959 0.045559049
0.063968852 -0.032288756 0.0042311503
0.023878774 0.010219606 -0.039748777
0.07148847 -0.030658819 -0.0078984713
0.035929825 -0.01064959 0.026950171
0.022550369 -0.005219799 0.041709632
-0.050678644 0.02127918 0.019818641
-0.010128913 -0.020219222 0.046328917
0.021668818 0.024269065 -0.03975882
-0.0039108307 0.0072297216 -0.04706917
-0.049419362 0.024499057 -0.016310638
0.050628576 -0.022369139 -0.023138581
0.027758757 -0.020499211 -0.036888756
-0.014138846 -0.020219222 0.045808844
0.0098890411 -0.019149262 -0.039949041
-0.034630083 -0.020909196 -0.038939919
0.032498784 0.02444906 -0.030558785
0.049369469 0.024059074 0.021960527
0.039729595 0.024499057 0.01850041
0.04444924 0.024499057 0.0049907598
0.039599109 0.024499057 -0.0066491095
-0.029120244 -0.020709204 -0.041769754
-0.032020174 -0.0069797314 -0.040999826
-0.040858541 -0.0067897388 0.035038538
-0.036720026 -0.0069997306 -0.038169973
-0.01708054 -0.020299219 -0.045139458
0.030528717 -0.0035898618 -0.036048718
0.018910475 0.003039883 0.043569528
0.04868957 0.018859273 0.026480427
-0.032500148 -0.020939194 -0.04022985
-0.03387012 -0.0069797314 -0.040009882
-0.051249228 -0.028388906 -0.01125077
-0.026258666 -0.020439211 0.043078661
0.049498636 0.024439059 -0.021378634
-0.003359064 -0.0094996337 0.045249064
-0.035690051 -0.020889195 -0.038299948
-0.03493008 -0.0069597317 -0.039369918
-0.031090202 -0.0069797314 -0.041489802
-0.031580176 -0.020939194 -0.040719826
-0.0059289779 -0.0066397442 0.047158975
-0.0059307902 -0.0066397442 -0.04695921
-0.042309828 -0.0067997384 -0.033450171
-0.029558614 -0.0068697357 0.042338613
-0.037610002 -0.0070097297 -0.037560001
-0.036590021 -0.020909196 -0.037699979
-0.03107013 0.024499057 -0.037839871
0.011110632 -0.028298911 0.043929368
-0.027920285 -0.0068697357 -0.042799715
-0.020118743 0.0056397831 0.045148745
-0.020120479 0.0056397831 -0.044949524
-0.042548552 -0.020329218 0.032708552
-0.010060695 -0.019929232 -0.046139307
-0.014070607 -0.019929232 -0.045629393
-0.020020474 0.016929349 -0.044569526
0.022018829 -0.028388906 -0.03866883
-0.027890278 -0.020589206 -0.042299721
-0.029860232 -0.0068597361 -0.042019766
-0.037018556 -0.0067797387 0.038178556
-0.028518636 -0.020579208 0.042278636
-0.027588638 -0.0067697391 0.043148637
-0.038898543 -0.0068497364 0.036738545
-0.040058549 -0.020559208 0.035128552
0.049808711 -0.02805892 -0.017168712
-0.038018562 -0.020409213 0.036808562
-0.017638808 -0.027748931 0.044328809
-0.012410653 0.0054997881 -0.046319347
-0.04103855 -0.020529211 0.034278549
-0.041838534 -0.0067597395 0.034178536
-0.042659808 -0.020469213 -0.032430194
-0.043789774 -0.0067497403 -0.031900227
-0.030548604 -0.0069197337 0.041938603
-0.029498626 -0.020619206 0.041878629
-0.04396854 -0.0066997418 0.031858541
-0.026468651 -0.0066997418 0.043548651
-0.025128679 -0.020369215 0.043468677
-0.026950311 -0.0068697357 -0.043189686
-0.026910303 -0.020589206 -0.042699695
0.024780301 -0.0045798235 0.040399697
-0.041569859 -0.0068297368 -0.034230143
-0.041909833 -0.020499211 -0.033210166
0.030140121 -0.007579708 0.036509875
-0.024958672 -0.0067697391 0.043998674
-0.043308552 -0.020239221 0.03192855
-0.042598534 -0.0066597434 0.033398535
-0.012728867 0.017209336 0.046098869
-0.052239213 -0.02827891 -0.011370787
0.036359839 -0.0053597935 0.027990162
0.036069833 0.0082596811 0.027280169
-0.035288565 -0.0067797387 0.039358567
-0.036138564 -0.020339217 0.038248565
0.049689457 0.024439059 0.021460544
-0.024208684 -0.0067997384 0.044218682
-0.024378689 -0.020409213 0.043698687
0.00065090542 -0.0062097609 0.047679096
-0.032358587 -0.006669743 0.041018587
-0.039209943 -0.0066597434 -0.036290057
-0.037878547 -0.0067797387 0.037578546
-0.037008561 -0.020339217 0.037648562
-0.051588729 0.024309063 0.014358731
0.012100652 -0.0076497053 0.045969348
-0.044648539 -0.006719741 0.031098541
-0.043988556 -0.02025922 0.031158553
0.011960641 -0.018799275 0.045219358
-0.054278933 0.023999076 0.0012089317
-0.0038990148 0.0067397407 0.047279015
0.024968876 -0.019119265 -0.033478875
-0.034078583 -0.020059226 0.039508585
0.0096889678 -0.028368909 -0.043908969
-0.017048799 -0.019929232 0.0453288
0.032018773 -0.02831891 -0.031758774
-0.0041490356 -0.027798928 0.045919038
0.0092590014 -0.028478904 -0.042629
0.021588866 -0.028488902 -0.037388865
0.066838712 -0.032218758 0.00014128414
-0.024780367 -0.0066397442 -0.043849632
-0.024660362 -0.019929232 -0.043399639
-0.026190331 -0.0066497438 -0.043429669
-0.0087089278 -0.0066397442 0.046978928
-0.034248568 -0.0066397442 0.03998857
-0.03303859 -0.019929232 0.040138591
-0.016770557 -0.0066497438 -0.045689445
-0.016768795 -0.0066497438 0.045888793
-0.039749913 -0.019899234 -0.035260085
-0.040839884 -0.006629745 -0.034910116
-0.031408597 -0.0066897427 0.041528594
-0.0320886 -0.019939233 0.040648598
-0.024070384 -0.0066397442 -0.044059612
-0.023950377 -0.019929232 -0.043609623
0.056498799 0.027358945 -0.0058887987
0.05649874 -0.029048881 -0.0088287415
0.056508999 -0.03015884 0.0044210027
-0.038399976 -0.0066797431 -0.036980025
-0.038939945 -0.019919233 -0.035950057
0.037688658 0.0025299026 -0.031878658
0.0259402 -0.018969269 0.036359798
0.076998033 -0.0040698429 -0.024978036
0.011350616 -0.028378906 0.043319385
0.04617849 0.0032798739 -0.03218849
-0.040469889 -0.020099225 -0.034580112
-0.01272886 0.0056397831 0.046488859
0.040428806 -0.028408907 -0.021468807
0.014210555 0.024339063 0.043069441
-0.025410341 -0.020149224 -0.043169659
0.025868831 -0.019039266 -0.034868829
0.015038894 -0.018919272 -0.042418893
0.033160016 -0.0074097146 0.033889987
-0.031228609 -0.020169223 0.041058611
-0.0033708033 -0.011049574 -0.045099195
-0.050418634 0.022199145 0.020568633
0.038519826 -0.0059097721 0.029390175
0.037809812 0.0070297294 0.027870191
-0.0034308045 -0.02828891 -0.045219194
0.010020622 -0.019039266 0.042309377
-0.0083907396 -0.0067797387 -0.046799257
0.07150887 0.025329024 0.012861129
0.071439132 -0.016919348 0.026880857
0.036208779 0.0070497287 -0.027378777
0.036748741 -0.0058397753 -0.028688738
-0.038149972 -0.02024922 -0.036530029
-0.016260531 -0.028268913 -0.043869466
-0.0034090637 0.0089296559 0.04521906
-0.00077086553 0.02411907 -0.045729134
-0.0092007145 0.017729316 -0.046289288
0.071498461 -0.02752894 -0.008698456
-0.037938599 0.02435906 0.034918599
0.031940054 0.0047098189 0.034859944
0.0038207599 0.024499057 0.043299239
-0.008848995 0.024499057 0.043328993
0.039209727 -0.023739085 0.025150269
0.03862869 -0.0052697971 -0.029438691
0.037838738 0.0072397212 -0.027748737
-0.053538762 0.020739201 0.010548766
0.062468879 0.032208759 0.0042811204
0.044509482 0.024499057 0.017570518
0.039528873 0.024499057 -0.019228868
0.054079261 0.024499057 0.01569074
0.039669354 0.024499057 0.0059306496
0.04922913 0.024499057 0.00405087
0.044379003 0.024499057 -0.0075889993
0.054078847 0.024499057 -0.0057188487
0.014840508 0.011999538 0.041199494
-0.012018896 0.023839083 0.045388892
0.021828817 -0.028298911 -0.039588816
0.037279405 0.024499057 0.0063905949
0.037209164 0.024499057 -0.0061791646
0.037339646 0.024499057 0.018970354
0.037138924 0.024499057 -0.018758923
-0.050449394 0.020799199 -0.018960604
0.032309975 -0.028348908 0.031010024
0.046288483 0.00068997347 -0.032428484
0.023978915 0.011309564 -0.032318916
0.012599034 0.01089958 -0.037609037
0.038789712 -0.028308911 0.023880286
-0.05442882 0.02129918 0.0069788177
0.018480476 0.01765932 0.043219525
0.027440203 0.017599322 0.038059793
-0.01493059 0.017429329 -0.045599408
-0.018328788 -0.027188953 0.044648785
-0.0029808257 -0.010699589 -0.045859173
0.016500538 0.0044798278 0.044469461
-0.0020790407 -0.0062197605 0.04773904
0.02607874 -0.012929502 -0.039248742
0.050369453 -0.023959078 0.021960547
-0.040209863 -0.028098918 -0.033100139
0.026860213 -0.018879274 0.037959788
0.012168883 -0.0027398944 -0.045798883
0.031868808 -0.028498903 -0.030078808
0.04007883 -0.028498903 -0.020708831
0.023230307 -0.028228913 0.039219692
0.028508738 0.017709319 -0.037098736
-0.041578546 0.017499326 0.033818547
0.05033873 -0.028498903 -0.015728727
-0.041549847 0.017339334 -0.033640154
-0.017198795 0.017329333 0.045418791
0.056498725 -0.030428829 -0.0096087269
0.012979029 0.01245952 -0.037469029
0.024098914 0.011829545 -0.032268912
0.062488377 -0.023189107 -0.021898376
0.068338238 0.02183916 -0.023218239
-0.0033908025 0.0086296676 -0.045069199
-0.0099607073 0.0056797811 -0.046659291
-0.012480645 0.017619321 -0.045939356
0.022638766 -0.012789507 -0.041388769
0.056628797 0.031378794 -0.0058887964
0.013800599 0.017649321 0.0448994
-0.053118691 -0.015419406 0.014778692
-0.050548859 0.024499057 0.0086588599
-0.051499076 0.024499057 -0.0034809243
-0.047479533 -0.028308911 -0.023210468
0.010440683 -0.015659396 0.045909319
0.012849029 0.01193954 -0.03751903
0.021068789 0.017499326 -0.041768789
0.022990346 0.017569324 0.040999655
0.02093881 0.023759086 -0.04093881
-0.0059289774 0.0056397831 0.047188975
-0.0075507495 0.017789315 -0.046469253
-0.0083207414 0.0057397787 -0.046829257
-0.046158612 0.024299065 0.025878614
0.014218876 -0.023849081 -0.044178877
-0.012220614 0.024399061 -0.044109385
0.045279749 -0.0030098842 0.032370251
-0.024908673 0.0059597706 0.044038668
-0.05458878 -0.015419406 0.0089587774
-0.039089948 0.0057897768 -0.036440052
-0.039298542 0.0058297757 0.036438543
-0.037499994 0.017479328 -0.037140008
0.024928756 0.017689317 -0.039618757
-0.0033990631 -0.010499596 0.045269061
0.025450235 0.024329063 0.037609771
-0.046988588 -0.027118955 0.026218589
-0.043088537 0.0059097721 0.032908536
0.030180039 -0.020499211 0.032239959
0.021080364 -0.020499211 0.039979637
-0.0081489515 -0.022789123 0.04635895
-0.035420071 0.0058497745 -0.039079931
0.012370645 0.0045998232 0.045889355
-0.054259155 0.015219415 -0.010290846
-0.037210014 0.0058197761 -0.037869986
-0.035380062 0.017579325 -0.038629938
-0.0087089343 0.017209336 0.046608936
-0.031048609 0.017239338 0.041258611
0.035019942 0.0048398138 0.031960059
0.032218784 -0.028408907 -0.030848786
-0.027910288 0.0058297757 -0.042839713
0.062598817 0.032498747 0.0011611829
0.028920164 0.0045498251 0.037469834
-0.026418651 0.0060197683 0.043588653
-0.024978679 0.017809315 0.043598682
-0.028698623 0.0057897768 0.042738624
0.015218855 -0.018699279 -0.044238854
-0.0002908546 0.024459058 -0.044679143
-0.02422869 0.017769316 0.043828689
-0.024158681 0.0059197717 0.044268683
-0.035368569 0.017359331 0.038818568
-0.037458558 0.017389331 0.037378557
-0.035728559 0.0057997764 0.03907856
-0.02245876 -0.028398907 0.041978758
-0.029860234 0.0058297757 -0.042059764
-0.027870279 0.017499326 -0.04241972
-0.012190641 -0.027198954 -0.04548936
-0.055638984 -0.0050798045 -0.0029010153
-0.055638868 -0.0050798045 0.0030988692
0.013898872 0.017529326 -0.044678871
-0.051519014 -0.028498903 -0.00028098651
-0.049599279 -0.028498903 -0.011930725
-0.027588647 0.017439328 0.042708643
0.03351 0.0049098111 0.033429999
-0.05527899 -0.015239413 -0.0029010084
-0.055278875 -0.015239413 0.0030988762
0.068329155 -0.020399215 0.024750838
0.050698649 -0.025809005 -0.019638646
-0.054598834 -0.020499211 0.0059488346
0.013588932 -0.01897927 -0.041828934
-0.033728577 0.005769778 0.040308576
-0.031838588 0.0057297791 0.041328587
-0.033368587 0.017329333 0.040048588
0.024218824 0.010479596 -0.036868822
0.012679002 0.010629592 -0.039129
-0.039308552 0.017419329 0.03593855
-0.041268535 0.0058897734 0.034738537
0.023018895 0.010629592 -0.034308895
-0.043289792 0.0058197761 -0.032470208
0.062488597 0.030228836 -0.010428595
0.02733022 0.0045198258 0.038679779
-0.037458546 0.0057997764 0.037888546
-0.034530099 0.0058597741 -0.0396799
-0.034480095 0.017589321 -0.039229907
0.0033308496 0.0047998154 0.047449149
-0.039379928 0.017449327 -0.03571007
-0.040719893 0.0058197761 -0.035060108
-0.048409559 -0.0050898041 -0.025600437
-0.04444854 0.0058697741 0.031368539
-0.043398552 0.017519325 0.03198855
0.013959009 0.011879543 -0.037499011
0.024428906 0.011629552 -0.03227891
-0.038269978 0.005769778 -0.037130021
-0.038559958 0.017429329 -0.036400042
-0.048438571 -0.0050798045 0.025758572
-0.026940314 0.0058297757 -0.043229688
-0.026900308 0.017499326 -0.042819694
0.0027990346 -0.0064197527 -0.047329035
0.0052389926 0.0049798083 -0.047058996
-0.044018585 -0.027838927 0.029588582
-0.055028968 0.020479212 -0.0013510336
0.0054908041 0.0048898119 0.047259197
0.0040708357 -0.006669743 0.047479164
-0.042398535 0.0059297718 0.033678535
-0.042718548 0.017539324 0.032758549
-0.042639811 0.017289335 -0.032610189
-0.041809849 0.005769778 -0.034030151
-0.032590151 0.017149338 -0.040259849
0.023810258 0.011999538 0.037259739
-0.038318545 0.0057997764 0.037288543
-0.038328554 0.017389331 0.036788553
0.036938727 -0.00648975 -0.029148728
0.036758736 0.0050898041 -0.028758738
0.014388855 -0.0030998806 -0.045148857
-0.05065864 0.023209106 0.01992864
-0.034318581 0.017339334 0.039538581
-0.034678567 0.0057797772 0.039788567
0.028238729 -0.0050898041 -0.037838727
-0.054729141 0.0047498168 -0.010090859
-0.05472875 0.0047498168 0.010278748
-0.030668603 0.0056897812 0.041938599
-0.029878618 0.017199337 0.041868623
0.033149924 0.024469057 0.029170077
0.024680236 0.02441906 0.036999766
-0.049919441 -0.027328948 -0.02085056
-0.052819286 0.015399407 -0.015620716
-0.027718635 0.0058397753 0.043138638
-0.028898628 0.017249335 0.042268634
-0.031730182 0.0056397831 -0.041179817
-0.04649955 -0.028418906 -0.02309045
-0.054529119 -0.014989423 -0.0089308769
-0.053438734 -0.02129918 0.012328734
-0.043389775 0.017319333 -0.031830225
-0.04403976 0.0058397753 -0.031700239
0.023450332 -0.018639283 0.040589668
0.0029908584 -0.006719741 0.047579139
0.0022508721 0.0047498168 0.047549129
-0.052959293 0.0051798006 -0.016170708
-0.052958664 0.0051798006 0.016358666
0.017328829 0.017499326 -0.043508828
-0.033580128 0.0056397831 -0.040199872
-0.031640176 0.016929349 -0.040769827
-0.0080707343 -0.022479134 -0.046179265
-0.054108784 0.023089111 0.0090587838
-0.04830857 0.0050698048 0.02599857
0.052198771 -0.028498903 -0.01168877
0.037229866 0.0046198219 0.030130139
0.037299868 -0.0067897388 0.030310135
0.012079039 0.010699589 -0.037849039
0.022418933 0.010699589 -0.03302893
0.0029390333 0.0048798118 -0.047279034
-0.051308636 0.015429405 0.019528637
0.033909921 0.024389062 0.029780079
0.056209538 -0.0057397787 0.032120463
-0.050989419 -0.0049698087 -0.020970577
-0.050988611 -0.0049798083 0.02115861
-0.024680363 0.016929349 -0.043499637
-0.026200332 0.0056397831 -0.043459665
-0.024780368 0.0056397831 -0.043879632
-0.023680359 0.024299065 -0.042339638
-0.016768793 0.005629783 0.045928791
-0.016770558 0.0056397831 -0.045729443
0.014720588 -0.0067597395 0.04521941
-0.054889116 -0.0054097921 -0.0090008834
-0.054888763 -0.0054097921 0.0091987662
0.017548818 -0.0024999038 -0.043928817
-0.0087089268 0.0056397831 0.047008928
-0.050749421 -0.015229413 -0.020640582
-0.025420344 0.017119341 -0.043269653
0.056748297 -0.0064097531 -0.031778298
0.045428511 -0.0060397675 -0.031848509
0.0017990529 0.0048298142 -0.047389053
0.0016490547 -0.0064797504 -0.047449052
0.071499079 -0.016639359 0.023700921
-0.030810211 0.0056397831 -0.04166979
-0.030710204 0.016929349 -0.041259799
-0.023980379 0.016929349 -0.043709621
-0.024080386 0.0056397831 -0.044099614
-0.054188937 -0.02804892 0.00088893966
0.03701986 0.0046998188 0.029620143
0.036679849 -0.0065497477 0.028770152
-0.049419492 0.015559401 -0.023110507
-0.050858606 0.0051798006 0.02139861
-0.053059261 -0.014989423 -0.014750738
0.036889851 -0.006629745 0.029280145
0.020028841 0.024319064 -0.040188838
0.035838746 0.023189107 -0.029458744
0.065349311 -0.01325949 0.029490689
0.038639769 0.023459097 0.02669023
-0.055118814 0.015419406 0.0063688164
-0.053418681 -0.0054097921 0.015028683
-0.053419258 -0.0054097921 -0.014830742
-8.9080706e-05 0.0052497978 0.047659084
0.0040308009 -0.020499211 0.045639198
-0.052058689 -0.027548939 0.01597869
0.013639015 0.012069535 -0.037489016
-0.029770227 0.017119341 -0.041649774
0.039398767 -0.023729086 -0.024638766
0.056499235 0.027378947 0.016790764
-0.053349216 0.020459212 -0.012500787
0.056539021 -0.02958886 0.0056309802
-0.0066789724 0.018309293 0.046708971
-0.048898589 -0.015469404 0.02439859
0.074258834 -0.021949155 0.013871162
-0.055368807 0.0048998115 0.0066688056
-0.055369057 0.0048998115 -0.0064709415
0.056498591 0.027358945 -0.016598592
0.0039790482 -0.020499211 -0.045459047
-0.0036307997 0.0079996921 -0.045169204
-0.0036290565 0.0079996921 0.045369059
-0.041568644 0.024499057 0.028858645
-0.047238719 0.024499057 0.019438718
0.020328788 -0.013079496 -0.042628787
0.06828931 -0.0034198682 0.032010701
-0.049859483 0.0051598013 -0.023100514
-0.051229388 0.015479404 -0.019590611
-0.04844955 -0.015149417 -0.024870455
-0.021788791 -0.028478904 0.041048788
-0.032158658 -0.028448904 0.037458658
0.0014708019 -0.020049229 0.0431192
0.011330523 -0.019819235 0.038439479
-0.054118708 0.0047498168 0.012948709
-0.054119203 0.0047498168 -0.012750796
-0.051358636 -0.015239413 0.019498635
0.054078642 0.024499057 -0.016418641
0.054079056 0.024499057 0.0049909451
0.049228925 0.024499057 -0.0066489242
0.044378795 0.024499057 -0.018288793
-0.0022690436 0.0054597901 0.047409043
0.021180242 -0.019269258 0.033799753
0.031009965 -0.018399293 0.029210035
0.071028642 0.032118764 0.00086135091
0.031008843 -0.018519286 -0.029028844
0.021178946 -0.019309256 -0.033608947
-0.051248614 0.0053297947 0.020628616
-0.049388595 0.015599399 0.023678593
-0.0498094 0.024249068 -0.018500604
0.038669735 -0.027708933 0.024870267
0.0026790926 0.01089958 -0.044449091
-0.053018685 0.015269413 0.015248686
0.036219835 -0.006809738 0.027630163
-0.05439876 0.015239413 0.010048758
-0.050078642 -0.020789199 0.020598639
0.011568896 -0.013839467 -0.045808893
0.0051189945 -0.008079689 -0.047098998
0.0048507578 0.024469057 0.044219241
0.037368689 0.0037798544 -0.030758688
0.037138712 -0.0069297333 -0.029818712
0.030619979 -0.020179223 0.02953002
0.0014008043 -0.020159224 0.043179195
0.020880254 -0.020169223 0.034079745
0.01114053 -0.020169223 0.038629472
0.045139749 -0.0060197683 0.032060251
-0.048998587 0.015439406 0.024448587
-0.049078669 -0.020799199 0.02000867
0.050409257 -0.028478904 0.011910741
-0.011248952 -0.028498903 0.043198954
-0.00055914407 -0.028498903 0.043899145
-0.041479807 0.024309063 -0.031360194
0.056499224 0.024499057 0.016160777
0.056498606 0.024499057 -0.015948605
0.056498811 0.024499057 -0.0052488111
0.056499016 0.024499057 0.0054609827
-0.049299505 -0.015459405 -0.023550497
-0.043989748 -0.022749124 -0.030710258
0.062479414 0.0023699086 0.032140587
0.020608783 -0.0023599092 -0.042608783
0.01311047 0.010699589 0.037549529
0.022760198 0.010699589 0.033019803
0.025480269 0.012039537 0.039409731
0.013460469 0.012159532 0.037799533
0.023110196 0.012499519 0.033299804
0.076998144 0.016689358 -0.019438144
0.076998048 0.0075597088 -0.024458047
0.0041690292 -0.020439211 -0.046279028
-0.0028408335 0.0076797041 -0.046139169
0.034899946 -0.006129764 0.032120053
-0.042209808 0.023679087 -0.032060195
0.024948748 0.0052497978 -0.040018748
0.016018856 0.010349602 -0.043338858
0.025338775 0.0103896 -0.038268775
0.071498126 0.018529287 -0.025758129
0.014908906 0.010449598 -0.041938905
0.0019491385 -0.020189224 -0.042799141
0.011499043 -0.019859234 -0.038199045
0.022930197 0.011519557 0.033149805
0.021070246 -0.019819235 0.033889756
0.011210526 -0.020049229 0.038569476
0.030679978 -0.020059226 0.029470023
0.0019691372 -0.020329218 -0.042849138
0.011539039 -0.02028922 -0.038359039
0.021118943 -0.02025922 -0.033858944
0.030698843 -0.020219222 -0.029368844
0.013380469 0.011669551 0.037729532
0.022840198 0.011029575 0.033079803
0.015300516 0.02444906 0.042099483
0.021068946 -0.019829236 -0.033698946
0.011529041 -0.020149224 -0.038299039
0.030678846 -0.020079227 -0.029308844
-0.0019008572 0.023429098 -0.046419144
0.021088945 -0.019969231 -0.033758946
0.018128812 -0.012569516 -0.043618813
-0.032828629 -0.028368909 0.03837863
-0.00090911979 -0.028378906 0.044809118
-0.011368944 -0.028458904 0.043498941
0.022928763 -0.0020599207 -0.041358758
-0.05403873 -0.015419406 0.01190873
0.046538621 0.020649204 -0.025018621
0.057068419 0.020719202 -0.02497842
0.011510516 -0.019399254 0.038319483
0.001980785 -0.018809276 0.042759214
0.01329047 0.011349563 0.037669532
-0.0513594 0.0052597974 -0.020140601
0.071509026 -0.015249413 0.021090971
-0.05224866 -0.015399407 0.017458659
-0.055119049 -0.015399407 -0.0058409492
0.0070289616 -0.0090096528 -0.046908963
0.065378569 -0.030978808 -0.009078566
0.020410275 -0.020369215 0.03477972
0.02996001 -0.020459212 0.030509992
0.0013108087 -0.020199221 0.043319192
0.010860543 -0.02028922 0.039049458
-0.052249346 -0.0049698087 -0.018240653
-0.0024908532 0.0076497053 -0.046799146
-0.033158619 -0.027958924 0.038758617
-0.052258641 -0.0049798083 0.01842864
0.05155845 0.014129456 -0.028958451
-0.0022108681 -0.0012499519 -0.047299132
-0.0024408554 -0.011679551 -0.046869148
-0.018830493 0.023079112 -0.044549506
0.03267001 -0.020409213 0.033309989
0.059539139 -0.028768891 0.014820862
0.02101025 -0.019939233 0.033949755
-0.048519544 0.015599399 -0.024870457
-0.048959535 0.0051997998 -0.024860464
-0.00078912813 -0.028418906 0.044499129
-0.052459244 -0.027838927 -0.013160756
0.030789973 -0.019509248 0.029380025
-0.053168967 -0.028388906 0.00039896864
0.071439222 -0.0064297523 0.031250775
0.036478754 -0.0072997189 -0.028038757
0.030788844 -0.019559247 -0.029218845
-0.050088607 -0.015239413 0.022228606
0.03183002 -0.020499211 0.032659981
-0.049489509 -0.0050798045 -0.023940494
-0.049488582 -0.0050798045 0.024138581
0.023158792 -0.027758932 -0.039568793
