# .PCD v0.7 - Point Cloud Data file format
VERSION 0.7
FIELDS x y z
SIZE 4 4 4
TYPE F F F
COUNT 1 1 1
WIDTH 1317
HEIGHT 1
VIEWPOINT 0 0 0 1 0 0 0
POINTS 1317
DATA ascii
0.010937599 0.0033497745 -0.071837597
0.1166091 0.027318854 0.1122009
-0.080978803 -0.048588227 0.023528794
-0.077179082 -0.048938215 0.012709077
-0.049878012 -0.058677837 0.095438011
-0.050988127 -0.060617764 0.088288128
-0.03856824 -0.060587768 0.095068239
0.037907265 -0.0077297986 -0.062017266
0.055457227 -0.020039324 -0.046347231
0.062498037 0.056997709 0.0025119632
0.040719338 0.056997709 0.048190661
0.095719323 0.055367772 0.10252067
0.10711908 0.055147778 0.10143092
-0.092928097 0.010489499 0.047618102
0.098349541 0.0032097804 0.11638047
-0.084988043 0.035418537 0.05877804
-0.088687763 0.035308544 0.069617763
-0.062999874 -0.06249769 -0.014370132
0.056647234 -0.019659339 -0.045007236
0.056577221 -0.0082297791 -0.045757223
-0.045980994 0.01778922 -0.055629011
0.11767913 0.013299391 0.11456087
-0.085088514 -0.046898291 0.033988513
-0.08952824 -0.043868408 0.044088233
0.10783689 -0.058557846 -0.011286899
0.095019601 0.014649339 0.11620039
0.09549956 0.029938752 0.11489044
0.09549956 -0.034938753 0.11489044
0.095019601 -0.019649338 0.11620039
0.09515959 -0.0082197795 0.11582041
0.09515959 0.0032197796 0.11582041
-0.096067369 0.015169321 0.082447372
0.089898981 -0.061997712 0.078941017
0.089977875 -0.061997712 0.021762121
0.089908764 -0.061997712 0.067501239
0.08993832 -0.061997712 0.044631682
0.07567843 -0.061997712 0.036171567
0.089958102 -0.061997712 0.033191901
0.089987651 -0.061997712 0.010322344
0.0898792 -0.061997712 0.090370797
0.089928538 -0.061997712 0.05607146
0.075688206 -0.061997712 0.024741787
-0.085157208 -0.044598382 0.1018872
0.05259721 -0.0025299988 -0.050267216
-0.07695844 0.050317965 0.045708444
-0.016121862 -0.0083297752 -0.070918135
-0.042870976 -0.06249769 -0.051629025
0.041690242 -0.061957709 0.096199758
0.018860688 -0.061817717 0.096629307
0.030270465 -0.061887715 0.096419536
0.02099053 -0.061927713 0.090529472
0.0074509121 -0.061747722 0.096839085
-0.036491293 -0.038488615 -0.061618708
-0.0055120764 -0.038498614 -0.071367919
0.13041645 -0.058377847 -0.011526458
-0.088227049 0.002669801 0.10715705
0.0075009139 0.05668772 0.096969083
0.018900691 0.056777716 0.09671931
0.030300466 0.056867711 0.096469536
0.041690242 0.056947712 0.096219756
0.13066857 0.054597802 0.098421425
0.14199834 0.054297812 0.097261667
0.019511033 -0.050658148 0.11527897
0.008731205 -0.052018095 0.1132788
0.030610794 -0.05268807 0.1137692
-0.024259077 -0.060567766 0.065579079
0.084669672 0.052957863 0.10965033
0.095379472 0.052737873 0.10988053
0.10618921 0.053667836 0.1064408
-0.069909349 0.056997709 0.0055193603
0.043037441 -0.06249769 -0.048017439
0.033927485 -0.06249769 -0.054827489
0.080867082 0.043098245 -0.028767083
0.12162641 -0.050838139 -0.022466414
0.079408169 0.056997709 0.025991835
0.089987658 0.056997709 0.010792334
0.089928545 0.056997709 0.056281455
0.0898792 0.056997709 0.090410799
0.089938328 0.056997709 0.044911675
0.079378597 0.056997709 0.048741397
0.089898989 0.056997709 0.07903102
0.089977883 0.056997709 0.022162113
0.089908764 0.056997709 0.067661241
0.089958109 0.056997709 0.033541895
0.07938838 0.056997709 0.037361614
0.079417944 0.056997709 0.014622053
0.074118301 0.056997709 0.027901698
0.084628895 0.056997709 0.069571093
0.091697633 -0.061967712 0.010822365
0.090968311 -0.061977711 0.044931695
0.09071853 -0.061977711 0.056301471
0.089989193 -0.061997712 0.090410799
0.090238981 -0.061987709 0.079041019
0.09144786 -0.061967712 0.022192143
0.091208078 -0.061967712 0.033561915
0.090478748 -0.061987709 0.067671247
-0.081789091 -0.042198475 0.007409092
-0.04943857 0.056897711 0.066838562
-0.061718248 0.056757715 0.071168251
-0.064738408 0.056917712 0.060208403
-0.034138735 0.05687771 0.073478736
0.09592732 -0.06088775 -0.0013673194
0.1072871 -0.060827754 -0.0015270971
-0.036561303 0.017199242 -0.062208697
0.067148224 -0.060587768 0.017301766
0.063408509 -0.060607761 0.028031491
0.0024677522 -0.018149396 -0.072277755
0.024330093 0.056997709 0.07107991
-0.0018195884 0.056997709 0.061559588
-0.090247691 0.037548456 0.071947686
0.089147083 -0.054887984 -0.020137087
-0.067777455 -0.049248204 0.10662745
0.090277657 0.056987707 0.010792341
0.090609185 0.056987707 0.090290815
0.090037659 0.056997709 0.010782333
0.090288319 0.056987707 0.044861685
0.090368532 0.056987707 0.056211464
0.0901981 0.056987707 0.033501901
0.090117887 0.056997709 0.022142118
0.090528965 0.056987707 0.078931034
0.090448745 0.056987707 0.067571245
0.10778856 0.056637723 0.075471431
0.099158332 0.056807715 0.054491665
0.090639189 0.056987707 0.090290815
0.10774814 0.056637723 0.052751869
0.090578534 0.056987707 0.05622147
0.090558305 0.056987707 0.044861689
0.090487652 0.056987707 0.010792345
0.11637837 0.056457728 0.07374163
0.10781878 0.056637723 0.086831212
0.09050788 0.056987707 0.022152124
0.090618968 0.056987707 0.078931034
0.10776836 0.056637723 0.06411165
0.090598747 0.056987707 0.067571253
0.090528093 0.056987707 0.033501908
0.11639859 0.056457728 0.085101411
0.099138118 0.056807715 0.043131884
0.099208772 0.056807715 0.077201232
0.099188551 0.056807715 0.065841451
0.099228986 0.056807715 0.088561013
0.099117897 0.056807715 0.031772103
0.090297885 0.056987707 0.022142122
0.090417877 0.056987707 0.022142122
0.09054853 0.056987707 0.05622147
0.090348318 0.056987707 0.044861685
0.090457655 0.056987707 0.010792341
0.090508752 0.056987707 0.067571253
0.090378091 0.056987707 0.033501901
0.090588965 0.056987707 0.078931034
-0.038657758 -0.047108285 0.11984776
0.090438306 0.056987707 0.044861685
0.090378307 0.056987707 0.044861685
0.090447873 0.056987707 0.022142122
0.090468094 0.056987707 0.033501908
0.090538748 0.056987707 0.067571253
0.090397656 0.056987707 0.010792341
0.090318099 0.056987707 0.033501901
0.090488531 0.056987707 0.05622147
0.09043809 0.056987707 0.033501901
0.090237886 0.056987707 0.022142118
0.10804857 -0.061627727 0.075471431
0.090868957 -0.061977711 0.07894104
0.099308982 -0.061807718 0.088561013
0.099748313 -0.061797719 0.054501683
0.10833813 -0.061627727 0.052771877
0.091158517 -0.061977711 0.05623148
0.091737628 -0.061957709 0.010812365
0.091308296 -0.061967712 0.044871703
0.11662837 -0.061457731 0.07374163
0.10003788 -0.061797719 0.031792123
0.091597855 -0.061967712 0.022172144
0.10818834 -0.061627727 0.064121656
0.091448076 -0.061967712 0.033521924
0.099888101 -0.061797719 0.043141901
0.090729184 -0.061987709 0.090290815
0.091018744 -0.061977711 0.067581259
0.10789879 -0.061637726 0.086831212
0.099458762 -0.061807718 0.077211231
0.099598549 -0.061797719 0.065851457
0.11648858 -0.061457731 0.085101411
-0.01720834 -0.052808065 0.11095835
-0.054738931 -0.06249769 0.042728931
-0.047018919 -0.06249769 0.051058918
0.15643768 -0.060647763 0.077502325
0.15333734 -0.060707759 0.057312656
0.15928741 -0.060587768 0.066522598
0.14142722 -0.060957752 0.038902782
-0.083197221 0.039908368 0.10318722
0.13985609 0.011979442 -0.021306083
0.1279663 0.018419195 -0.022556297
0.13391618 0.0087595657 -0.022136185
0.14580598 0.0023298142 -0.020895977
0.15175588 0.0055396906 -0.020065885
0.12796628 0.0055396906 -0.022956289
0.13985609 -0.016979443 -0.021306083
0.12796628 -0.01053969 -0.022956289
0.1279663 -0.023419194 -0.022556297
0.13391618 -0.013759566 -0.022136185
0.14580598 -0.0073298141 -0.020895977
0.15175588 -0.01053969 -0.020065885
0.12283845 0.056327734 0.08380156
0.092637606 0.056947712 0.010362394
0.12283764 0.056327734 0.042172361
0.10989728 0.056597721 0.010692719
0.10557797 0.056677718 0.041832037
0.10989808 0.056597721 0.052321918
0.12283725 0.056327734 0.021352762
0.12283804 0.056327734 0.062981963
0.096947722 0.056857713 0.020852273
0.11852752 0.05641773 0.03168248
0.1142074 0.056507725 0.021182599
0.10126784 0.056767713 0.031342153
0.11420821 0.056507725 0.062811799
0.11852832 0.05641773 0.073311679
0.090569191 0.056987707 0.090300813
0.090388961 0.056987707 0.078951031
0.090238318 0.056987707 0.044861682
0.090067886 0.056997709 0.022152113
0.090058103 0.056997709 0.033521894
0.090028539 0.056997709 0.056271456
0.090208754 0.056987707 0.06761124
0.13066858 0.054467805 0.099001415
-0.063997328 -0.031128896 0.11699732
-0.095307246 -0.021439269 0.089797243
-0.071857192 -0.020999288 0.11594719
-0.077567108 0.0025498052 0.1147071
0.090679191 -0.061987709 0.090300813
0.090728968 -0.061977711 0.07896103
0.091258295 -0.061967712 0.044881701
0.090818524 -0.061977711 0.05628147
0.091547854 -0.061967712 0.022172144
0.09130808 -0.061967712 0.033541922
0.09076874 -0.061977711 0.067621253
0.025429951 -0.061747722 0.06494005
0.09007854 0.056997709 0.056261461
0.090438962 0.056987707 0.078951031
0.090108097 0.056997709 0.033511899
0.090348758 0.056987707 0.06759125
-0.032908693 -0.061827719 0.077068686
0.090778954 -0.061977711 0.078951031
0.090868525 -0.061977711 0.056281477
0.091358081 -0.061967712 0.033541922
0.090918742 -0.061977711 0.067601256
0.16171603 -0.059697799 -0.0020760372
-0.044810966 0.03871841 -0.052959036
0.045688976 0.056997709 0.034411024
-0.074418679 0.051167931 0.036278676
-0.045757659 -0.0072998153 0.11792766
0.090088978 0.056997709 0.079001024
0.090469189 0.056987707 0.090310812
0.090108752 0.056997709 0.067631245
0.090138316 0.056997709 0.044881679
0.090298757 0.056987707 0.067601249
0.051860172 -0.060077786 0.10277983
0.040600367 -0.060347773 0.10165963
0.029350562 -0.060617764 0.10053944
0.063119978 -0.059797797 0.10389002
0.041057266 0.028158819 -0.058957268
0.09060853 -0.061987709 0.056271467
0.09016832 -0.061997712 0.044701684
0.091577634 -0.061967712 0.010792363
0.090118982 -0.061997712 0.079001024
0.090638094 -0.061987709 0.033391908
0.091107868 -0.061977711 0.022092137
0.090138756 -0.061997712 0.067571245
0.090579189 -0.061987709 0.090310812
0.091158293 -0.061977711 0.044901699
0.090868741 -0.061977711 0.067611255
0.090678751 -0.061987709 0.067641251
0.090428971 -0.061987709 0.079011023
0.090168543 0.056987707 0.056251459
-0.095977329 0.014849331 0.084997326
-0.095657349 0.0261089 0.084117346
-0.057039797 0.058747642 -0.0046502016
-0.094607189 -0.021759259 0.093277186
0.03045046 0.056887712 0.096349537
0.0078509022 0.05674772 0.096689098
0.019150682 0.056817714 0.096519321
0.041740239 0.056957707 0.096179761
0.051850233 -0.058677837 0.10595977
0.09018898 0.056987707 0.078991026
0.090968527 -0.061977711 0.056261476
0.090528972 -0.061987709 0.078991033
0.093887575 -0.061917715 0.010382414
0.12292763 -0.061327737 0.042172361
0.12292843 -0.061327737 0.08380156
0.10632795 -0.061667722 0.041842051
0.11047808 -0.061577726 0.052331928
0.11047728 -0.061577726 0.010702729
0.11877751 -0.061417732 0.031682484
0.12292723 -0.061327737 0.021352762
0.11877832 -0.061417732 0.073311687
0.098037705 -0.061837718 0.020872295
0.12292803 -0.061327737 0.062981963
0.11462739 -0.061497729 0.021192605
0.1146282 -0.061497729 0.062821805
0.10218783 -0.061747722 0.031362172
0.1141492 -0.016629456 0.1145408
0.090269193 0.056987707 0.090340808
0.018630713 -0.061507728 0.097729281
0.0073709209 -0.061637726 0.097209081
0.030200474 -0.061787717 0.096789524
-0.049180862 0.0338086 -0.051899139
0.067518227 -0.06078776 0.017361775
-0.088388652 -0.00690983 0.023988644
0.14047845 0.053107858 0.10248154
0.15155819 0.053107858 0.10038179
-0.085098863 0.029278779 0.015938861
0.087839745 -0.040718529 0.11677025
0.081859864 -0.031808872 0.11708013
0.077409968 -0.013849564 0.11770003
0.071020089 -0.0086497627 0.1178899
0.067140155 -0.034178782 0.11698984
0.079919897 -0.044578381 0.1166301
0.060750276 -0.028988978 0.11716972
0.039630685 -0.026159089 0.11726931
0.054360401 -0.02378918 0.11735959
0.04602056 -0.03135889 0.11708944
0.052410431 -0.036548689 0.11690956
-0.0025884972 -0.020499306 0.1174685
0.0038013766 -0.025699105 0.11728862
0.056300376 -0.011019671 0.11779962
0.04797053 -0.018589379 0.11753947
0.018521095 -0.023329196 0.11736891
0.041580655 -0.01338958 0.11771934
0.026850939 -0.01575949 0.11763906
0.033240814 -0.020959288 0.11745919
0.024910968 -0.028528998 0.11718903
0.012131221 -0.018129397 0.11754878
0.058800306 -0.04174849 0.11672969
0.031300843 -0.033728797 0.11700916
0.075469993 -0.026619069 0.11726001
0.085739806 -0.0062798541 0.11797019
0.073530026 -0.039378583 0.11680998
0.069080122 -0.021419272 0.11743987
0.083799839 -0.019049363 0.11752016
0.062690243 -0.016219473 0.11761975
-0.076639012 0.045638144 0.016819008
-0.079828739 0.045688145 0.027618738
0.090288319 -0.061987709 0.044731688
0.091227859 -0.061967712 0.022122135
0.090248756 -0.061987709 0.067601241
0.090978086 -0.061977711 0.033491913
0.090389185 -0.061987709 0.090350807
0.066359103 0.056997709 0.061870895
0.074499056 0.056997709 0.067660943
0.059438698 0.056997709 0.033601306
0.058818925 0.056997709 0.044841077
0.066968873 0.056997709 0.050631121
-0.068357237 0.0027497979 0.11720724
0.091179699 -0.0080097876 0.11769029
0.091179699 0.0029997882 0.11769029
-0.069788449 0.05513778 0.052838445
-0.017911799 -0.038468614 -0.069328204
-0.023431662 0.028548805 -0.067848332
0.084648572 0.056997709 0.052511424
0.084678128 0.056997709 0.029761866
0.074147969 0.056997709 0.010842025
0.084717698 0.056997709 0.0070223063
0.084697917 0.056997709 0.018392086
-0.057708405 -0.061847717 0.06708841
-0.067099415 -0.060507767 0.0057794042
-0.093848027 -0.0024999999 0.050558027
0.044077229 -0.0077297986 -0.057797227
0.041500244 0.056957707 0.096099749
0.019050682 0.056817714 0.09648931
0.020940531 0.056927711 0.090469472
0.0078209015 0.05674772 0.096679091
0.030270463 0.056887712 0.09628953
-0.096377313 0.0035997652 0.085497305
0.064527355 -0.045408346 -0.030767359
-0.045120873 -0.06048777 -0.048289135
-0.043211039 -0.047708262 -0.055228963
0.15473594 -0.057107899 -0.01470593
0.16593571 -0.056757912 -0.015235703
-0.007211973 -0.062487692 -0.067678027
0.0037978564 -0.06249769 -0.065547854
0.090408094 -0.061987709 0.033331905
0.090427868 -0.061987709 0.021892127
0.090868086 -0.061977711 0.033461913
0.091347635 -0.061967712 0.010722362
0.09037853 -0.061987709 0.056201465
-0.07908769 -0.052478075 0.083137684
-0.03482135 0.028478809 -0.062778652
0.030400462 0.05687771 0.096389532
0.0078009036 0.056737717 0.0967291
0.019000687 0.056797717 0.096639313
-0.039657813 0.040948328 0.11593781
-0.017418256 0.043458231 0.11516826
-0.050777592 0.039698374 0.1163176
-0.028538035 0.042198278 0.11554804
-0.083069026 0.029278779 0.0096490234
-0.038481236 -0.028309004 -0.06082876
0.0050978241 -0.060497768 -0.06591782
-0.087557234 -0.044458386 0.097987235
-0.050760806 -0.038388621 -0.050539199
-0.05141934 0.058747642 0.024839338
0.068947293 0.044738181 -0.029727299
0.10989788 0.056597721 0.041912116
0.12283704 0.056327734 0.010952963
0.12283784 0.056327734 0.052572161
0.12283745 0.056327734 0.031762563
0.10557736 0.056677718 0.010612637
0.10989748 0.056597721 0.021102518
0.10557777 0.056677718 0.031422239
0.12283824 0.056327734 0.073391765
0.10126764 0.056767713 0.020932354
0.1142076 0.056507725 0.031592399
0.096947521 0.056857713 0.010442473
0.11852772 0.05641773 0.04208228
0.1142072 0.056507725 0.010782799
0.11852732 0.05641773 0.021272682
0.11420801 0.056507725 0.052411996
0.11852812 0.05641773 0.062901884
0.057488967 -0.061997712 0.04596103
0.042829432 -0.061327737 0.055120572
-0.063539036 -0.060587768 0.028439038
-0.027358443 -0.061557729 0.095468447
-0.042418405 -0.061687723 0.082438409
-0.016238635 -0.061607726 0.096618637
0.018710706 -0.061607726 0.097369298
-0.036558151 -0.057757873 0.10141815
-0.087548651 0.029278779 0.024618652
0.16096802 -0.057597879 0.10036197
0.17197777 -0.057587881 0.098412223
0.14995827 -0.057607878 0.10231172
0.18298753 -0.057577882 0.096472472
0.047567606 0.057007708 -0.034727607
-0.059720419 -0.038458616 -0.039589576
0.021900047 -0.06124774 0.066299953
0.087959744 0.035718527 0.11677026
-0.023551669 0.017829219 -0.068188325
-0.026451586 0.028508807 -0.066728421
0.18774749 0.0054296949 0.10005249
-0.034128286 -0.060607761 0.096928284
0.090508312 -0.061987709 0.04480169
0.019080682 0.056817714 0.096499316
0.030380461 0.056887712 0.09632954
0.041540243 0.056957707 0.096109763
-0.061367359 0.0027097994 0.11783735
0.010360322 -0.060607761 0.069079682
0.11498918 -0.015559496 0.11454082
-0.062968023 -0.0596678 0.081598029
0.029457372 0.033888597 -0.065107375
-0.076769471 -0.029738951 -0.0069805384
-0.086568803 0.0020398255 0.017518805
0.15822616 0.055067781 -6.146729e-06
0.16936591 0.054807793 -0.0002759248
-0.035171345 0.017819218 -0.062998652
-0.037691258 0.028508807 -0.061118744
-0.058547366 -0.033528805 0.12008736
0.027597364 0.0028697932 -0.067277364
0.030217346 0.013569383 -0.065687343
0.12292783 -0.061327737 0.05258216
0.12292703 -0.061327737 0.010952963
0.11047788 -0.061577726 0.041932128
0.12292823 -0.061327737 0.073391765
0.12292743 -0.061327737 0.031762563
0.11877731 -0.061417732 0.021272685
0.11877812 -0.061417732 0.062901884
0.10632735 -0.061667722 0.01062265
0.098037511 -0.061837718 0.010462496
0.11877771 -0.061417732 0.042092286
0.11047748 -0.061577726 0.02111253
0.10632775 -0.061667722 0.031442251
0.10218763 -0.061747722 0.020952372
0.11462759 -0.061497729 0.031602405
0.11462799 -0.061497729 0.052412003
0.11462719 -0.061497729 0.010782806
0.00077077158 -0.061847717 0.082849227
-0.088888593 0.0020398255 0.025988597
0.00077077158 0.056847714 0.082849227
0.090657867 -0.061987709 0.021962132
0.10768712 -0.061087742 7.2881579e-05
0.097107388 -0.061667722 0.0034526102
0.0047577173 -0.028319005 -0.071797714
-0.082178779 -0.04744827 0.023498772
-0.080799006 -0.045518342 0.012639007
-0.050740827 -0.017939406 -0.051599171
-0.023891572 -0.060507767 -0.063528426
0.053639017 -0.061997712 0.044580981
0.074619994 0.048348039 0.11623001
0.043909494 -0.061997712 0.059580505
-0.072727673 0.048958018 0.089897677
-0.082017437 0.04376822 0.093037441
0.019050684 0.056807715 0.096599311
-0.07024987 -0.015999481 -0.021720126
0.11814912 0.011819448 0.11456088
0.030340459 0.056887712 0.096319541
-0.083929017 -0.00690983 0.0091490149
-0.08009924 0.029278779 0.0014792345
-0.076839447 0.029278779 -0.006420549
-0.065358073 0.054647796 0.076868072
0.066117495 -0.060827754 -0.022007499
-0.096107401 0.015329313 0.0811674
-0.095697373 0.026268892 0.082837373
-0.045057632 -0.019679338 0.11994763
-0.083707094 0.032508649 0.10951709
-0.024571629 -0.038458616 -0.067258373
0.092839666 -0.0080097876 0.11739033
0.091709681 -0.019019362 0.11720031
0.092239663 -0.030028939 0.11672034
-0.080279276 0.0020398255 -0.00066072866
0.092839666 0.0029997882 0.11739033
0.091709681 0.014009366 0.11720031
0.092229664 0.02501894 0.11672034
-0.083969012 0.0020398255 0.0093290135
0.084919639 -0.058717836 0.10809036
0.074139789 -0.059347812 0.10566021
0.084087074 -0.053018056 -0.026067071
0.086569779 -0.029938944 0.11714022
0.089239739 -0.0079897884 0.11791026
0.087909758 -0.018969366 0.11753024
0.085229799 -0.040918522 0.11676019
-0.066667274 -0.020689299 0.11694727
-0.078399256 -0.044118401 0.001969263
-0.074999534 -0.043258432 -0.0085204728
0.090897642 -0.061977711 0.010592353
0.015321153 0.023379004 0.11719885
0.068290137 0.030048748 0.11695987
0.052300446 0.013189398 0.11754955
-0.021658141 0.033578608 0.11683814
0.032560818 0.029258778 0.11698918
0.086779773 0.024948945 0.11714022
0.078789935 0.016519269 0.11744006
0.0060813292 0.025928905 0.11710867
0.060300287 0.02161907 0.11725971
0.049800485 0.03514855 0.11678952
0.085519791 0.035928521 0.11676021
0.089279741 0.0029897885 0.11791026
0.069540113 0.019069171 0.11734989
-0.0031684947 0.028478809 0.11701849
0.033810802 0.0182792 0.1173692
0.014071168 0.03435858 0.11680883
0.051050462 0.024168974 0.11716954
0.088029765 0.013969367 0.11752024
0.070790097 0.0080895927 0.1177299
0.080039918 0.0055396906 0.11782008
0.077529952 0.027498845 0.11705004
0.023320993 0.031808674 0.11689901
0.061550271 0.010639494 0.11763974
0.043060623 0.015729299 0.11745938
0.12499669 0.054827791 -0.004726693
0.017087502 0.0027197991 -0.070657507
0.014707545 0.013519384 -0.070797548
-0.05994777 -0.055437963 0.098007768
-0.068807505 -0.05085814 0.1027775
-0.082219131 -0.016779451 0.0052691251
0.016237523 0.014129359 -0.070407525
-0.074919492 0.036958478 -0.0067605041
-0.065937869 -0.05731789 0.086887866
0.063229986 -0.059627805 0.10431002
0.030110603 -0.059437808 0.1034494
0.052190188 -0.059567802 0.10401981
0.041150395 -0.059507806 0.1037396
0.0085712411 -0.050318163 0.11503875
0.019670999 -0.052358083 0.113519
-0.0022085898 -0.05167811 0.11303858
0.10621919 0.053887825 0.10597081
0.095469438 0.053407844 0.10845055
-0.05234075 0.028498806 -0.049229246
-0.05046083 0.017889215 -0.051609173
0.084539585 -0.059827793 0.10472042
0.10368942 -0.0079097915 0.11561058
0.10612936 -0.018659377 0.11517063
-0.073789544 -0.04439839 -0.008490447
-0.07478933 -0.047538266 0.0020393282
0.091929659 -0.041038517 0.11638034
0.090349726 -0.0080097876 0.11784028
0.092539668 -0.019019362 0.11705033
0.090879701 -0.019019362 0.1173503
0.091409683 -0.030028939 0.11687031
0.091929659 0.036028516 0.11638034
0.090349726 0.0029997882 0.11784028
0.092539668 0.014009366 0.11705033
0.091399677 0.02501894 0.11687031
0.090879701 0.014009366 0.1173503
-0.06180926 -0.063497655 0.018779257
-0.057459146 -0.063497655 0.028919145
-0.026871575 -0.028279006 -0.066758424
-0.038307756 -0.039868563 0.12009776
0.041600242 0.056957707 0.09612976
0.092349648 -0.041038517 0.11631034
0.093259655 -0.0080097876 0.11731035
0.092959657 -0.019019362 0.11698034
0.092649654 -0.030028939 0.11664034
-0.031541388 0.038748413 -0.061748609
-0.095667593 -0.022979211 0.071467593
0.09233965 0.036028516 0.11631034
0.093259655 0.0029997882 0.11731035
0.092949659 0.014009366 0.11698034
0.092649654 0.02501894 0.11664034
-0.086008534 0.040238351 0.03244853
-0.083218783 0.040468346 0.021788787
-0.061930139 -0.056247931 -0.027009863
-0.014101701 0.05409782 -0.060408302
-0.037719004 -0.06249769 0.056019001
-0.096307285 -0.0074298098 0.086467288
0.10456719 0.056127742 0.00052280724
-0.063008718 -0.061997712 0.04533872
-0.016311839 0.029328777 -0.069828168
0.010660674 0.056917712 0.087659329
0.031220386 0.056947712 0.093279615
0.019990606 0.05687771 0.093479395
-0.074877843 0.050127972 0.079297841
0.0077009071 0.056727719 0.096809089
0.010640675 -0.061917715 0.087699324
0.031340383 -0.061947715 0.093369618
0.01992061 -0.061877713 0.093579389
0.16041781 0.054787792 0.088742182
-0.08514706 0.0130894 0.10972705
0.032627318 0.013539381 -0.064547323
0.034807291 0.0027997959 -0.063847288
-0.065139897 -0.056597918 -0.017460112
0.088519737 -0.029788949 0.11715025
0.0084812641 -0.049198203 0.11608873
0.031550821 -0.050688148 0.11612917
-0.024358097 -0.046538305 0.11640809
0.042500608 -0.051568113 0.1160194
-0.002468524 -0.048308238 0.11619852
-0.013408312 -0.047428273 0.11630831
0.059500281 -0.052758068 0.11598972
0.10584906 0.055667758 0.098760948
-0.074867263 -0.04561834 0.10949726
0.0152201 -0.063497655 0.062399901
0.025579831 -0.063497655 0.058780171
-0.032671411 -0.028279006 -0.064118586
-0.020621739 -0.028309004 -0.068938263
0.041367251 -0.0180494 -0.059327248
0.10237674 -0.050138168 -0.024936743
0.11296656 -0.047568265 -0.023666557
0.12797692 -0.061227739 0.010393068
0.15972634 -0.060577765 0.011013668
0.15178718 -0.060747758 0.047222819
0.16964737 -0.060377773 0.074842632
0.14583713 -0.060867757 0.038012885
0.15575676 -0.060657762 0.029113246
0.17559603 -0.060257778 0.011323972
0.17361695 -0.060297776 0.056743056
0.14979668 -0.06078776 0.019913308
0.15488751 -0.060677763 0.067412488
0.1656764 -0.06045777 0.020223608
0.16083758 -0.060557768 0.076612428
0.17758653 -0.060217779 0.038633484
0.16170681 -0.060537767 0.038323186
0.16765687 -0.060417771 0.047533117
0.14384663 -0.060907751 0.01070337
0.16368732 -0.060497768 0.065632701
0.13392699 -0.061107744 0.01959301
0.15773724 -0.060617764 0.056422759
0.13987705 -0.060987748 0.028802946
0.17162645 -0.060337774 0.029433545
0.18154608 -0.060137782 0.020533908
-0.067629628 -0.055447962 -0.0065603703
0.0054104966 -0.061997712 0.073199503
0.028630299 -0.061997712 0.086239696
0.014340447 -0.061997712 0.079549551
-0.056409545 0.060497571 0.0091595463
0.030690774 -0.053538036 0.11288923
-0.0021286083 -0.052528076 0.11215861
0.019750981 -0.053208049 0.11264901
0.0088111851 -0.052868061 0.11239882
0.063739933 -0.060307775 0.10234006
-0.040640801 0.056997709 -0.040179204
-0.048410907 0.017889215 -0.053549092
-0.046190977 0.028498806 -0.05502902
0.016139938 0.060497571 0.05488006
0.038327418 -0.06048777 -0.053867418
-0.095437311 -0.031968866 0.08630731
-0.010261978 0.029268777 -0.070978023
0.08860974 0.02478895 0.11715026
0.022277566 -0.06048777 -0.062237568
-0.025238933 0.056957707 0.072188936
0.032457665 0.060497571 -0.04684766
-0.037861273 -0.0083297752 -0.062038723
0.070059784 0.055767756 0.10100021
0.091407314 -0.059507806 -0.0064373091
0.0091805328 -0.061997712 0.078849465
0.019107496 0.033878598 -0.068837501
0.14039826 0.055327769 0.091221757
0.15124807 0.054727793 0.092251942
-0.072719119 0.049198009 0.014819123
-0.073629543 0.038128436 -0.008070454
-0.030491469 -0.038438618 -0.064798534
0.13543865 0.051927902 0.10671136
0.044267237 -0.018039402 -0.057197243
0.047187217 -0.0077097993 -0.055337217
-0.072408907 0.050997939 0.026628902
-0.074159063 0.047408078 0.016489064
0.12770657 -0.05892783 -0.008636564
-0.070869841 -0.011909638 -0.020800155
0.089959733 0.0029397905 0.11790027
0.089959733 -0.0079397904 0.11790027
0.08988972 0.024688954 0.11714029
0.089849718 0.024688954 0.11715028
0.08988972 -0.029688952 0.11714029
0.089849718 -0.029688952 0.11715028
0.090049721 -0.0079397904 0.11790027
0.090049721 0.0029397905 0.11790027
0.089809708 0.035568535 0.1167703
0.089919731 0.0029397905 0.11791027
0.089809708 -0.040568538 0.1167703
0.089919731 -0.0079397904 0.11791027
0.089969724 0.013809374 0.11752028
0.089969724 -0.018809373 0.11752028
0.089929722 0.013809374 0.11752028
0.089879721 0.013809374 0.11753027
0.089929722 -0.018809373 0.11752028
0.089879721 -0.018809373 0.11753027
0.089819714 -0.029688952 0.11715028
0.089819714 0.024688954 0.11715028
0.089889735 0.0029397905 0.11791027
0.089889735 -0.0079397904 0.11791027
0.089859724 0.013809374 0.11753027
0.089859724 -0.018809373 0.11753027
0.089789711 0.035568535 0.1167703
0.089789711 -0.040568538 0.1167703
-0.061647672 0.048528034 0.10118768
0.048637241 0.028908791 -0.052827239
0.084749617 0.054037824 0.10706037
0.073979855 0.053237852 0.10836014
0.06329003 0.053507842 0.10706997
-0.030531349 -0.06048777 -0.058638651
0.15050635 -0.060497768 0.002763655
0.048149098 -0.062997669 0.043310903
-0.078219287 0.036958478 0.0011292808
-0.023298096 -0.018519383 0.11753809
0.0024214126 -0.011439655 0.11778859
-0.030747952 -0.013839563 0.11769795
0.035590775 -0.0090397485 0.11786923
0.0061413394 -0.013779566 0.11770865
-0.014168269 -0.01263961 0.11774827
0.020147774 0.056997709 -0.053447772
-0.090778396 0.0020398255 0.034128405
0.096737221 0.054747794 -0.005637221
-0.0880282 -0.046048325 0.047728196
-0.092288226 0.0020398255 0.042108219
-0.074169658 0.0019098301 -0.014550339
0.034967564 0.056997709 -0.049557559
0.089209735 -0.01885937 0.11753026
0.089139722 -0.040618535 0.11677028
0.087869756 -0.029838948 0.11715025
-0.069638886 -0.058377847 0.030218884
0.062858433 -0.06249769 0.023551567
-0.083748735 -0.045748334 0.024288727
0.08924973 0.013869371 0.11753026
0.087999754 0.024848947 0.11715025
0.089179724 0.035618532 0.11677028
0.052080184 -0.059737798 0.10360982
0.030000597 -0.059607804 0.1030294
0.040820379 -0.060007788 0.10248962
0.051857404 -0.06048777 -0.041077401
-0.089558288 0.036978479 0.04161828
-0.000569453 -0.060627762 0.069839448
0.087298393 0.056997709 0.045871604
0.087249056 0.056997709 0.079990953
0.082028314 0.056997709 0.036411688
0.081998751 0.056997709 0.059151247
0.076758236 0.056997709 0.026951768
0.071498156 0.056997709 0.017491849
0.087268829 0.056997709 0.068621166
0.076748453 0.056997709 0.038321547
0.048169099 -0.063497655 0.0433309
0.021950955 0.047618069 0.11344904
-0.041787691 -0.041548498 0.1200977
-0.040271193 -0.01829939 -0.060078811
0.15070631 -0.060327772 0.00094369054
0.18309565 -0.059487808 -0.00056565553
0.17229587 -0.059767798 -6.5878034e-05
0.16149609 -0.060047783 0.00043391064
0.10520904 0.05592775 0.097420961
0.09507931 0.05562776 0.10118069
-0.056670371 -0.06048777 -0.034129627
-0.012351849 -0.056217935 -0.06634815
0.12499669 0.054827791 -0.0047366917
0.053287674 0.056997709 -0.025527678
0.086307555 0.056347735 0.0012124479
-0.052688912 -0.060577765 0.045838911
0.051837243 -0.039398581 -0.049317244
0.019967705 0.056997709 -0.057247713
0.05999732 -0.035078745 -0.037227321
0.095439449 0.053177852 0.10892054
-0.03224856 0.05671772 0.084338561
-0.090477057 0.0026997998 0.10421705
0.011471243 -0.0054998845 0.11799876
-0.059800342 0.038338427 -0.035499662
-0.082627065 0.013119398 0.11153707
-0.064747304 0.0027097994 0.1176473
0.15265827 0.047688067 0.10493173
0.15983813 0.027558845 0.10433188
0.18340759 0.021029096 0.10028241
0.16802792 0.03435858 0.10260206
0.17521779 0.014229355 0.10201222
0.17621773 0.041158319 0.10087226
0.16852792 0.047818061 0.10204209
0.1603381 0.041018322 0.1037719
0.17571777 0.027688839 0.10144224
0.16752796 0.0208891 0.10317205
0.18290761 0.0075596129 0.10085239
0.15215829 0.034218583 0.10550171
0.18390757 0.034488577 0.099712431
0.18440756 0.047958054 0.099142447
0.14446847 0.040878329 0.10666154
0.13677862 0.047548074 0.10782137
-0.072869137 -0.052798063 0.014239129
0.10807692 0.053887825 -0.010256913
0.095489405 0.054037824 0.10681059
0.0069809458 -0.061297737 0.09811905
-0.053350735 -0.0074198106 -0.049469274
0.0095578544 0.056987707 -0.059877858
0.084629692 0.052417882 0.1109503
0.05256024 0.053247854 0.10706976
0.074019827 0.053777829 0.10706017
0.063250057 0.052967865 0.10835994
0.073939882 0.052697871 0.10965012
-0.085277893 0.044678181 0.066497885
0.078089863 -0.055757951 0.11322014
0.067380086 -0.054767989 0.11374992
0.056670301 -0.053788029 0.11427969
0.045950517 -0.052798063 0.11480948
-0.041728929 -0.061997712 0.055958927
-0.0044193817 -0.061997712 0.069689378
-0.049808908 -0.061997712 0.048888911
-0.056708936 -0.061997712 0.040668935
-0.032648992 -0.061997712 0.06170899
0.095499389 0.054357808 0.1059906
0.10622917 0.054207817 0.10515083
0.090109698 0.035628531 0.11671029
0.090269715 0.01387937 0.11747029
0.090799697 0.024888946 0.1169803
0.054448705 0.056997709 0.028961297
0.090119705 -0.040628534 0.11671029
0.090269715 -0.018879369 0.11746029
0.090799697 -0.029888945 0.1169803
-0.064348921 0.056997709 0.033968914
0.10830671 -0.055887945 -0.020286717
0.015117531 0.0028097956 -0.071097538
0.10654665 -0.048498232 -0.025606647
0.11150657 -0.029218972 -0.024996568
0.098346792 -0.0388586 -0.026606787
0.10082674 -0.029218972 -0.026306741
0.074507184 -0.048498232 -0.029537186
0.095866829 -0.048498232 -0.026916832
0.08518701 -0.048498232 -0.028227013
0.087666959 -0.0388586 -0.027916968
0.1090266 -0.0388586 -0.025296606
0.11398652 -0.019579342 -0.024686523
-0.091068275 0.029278779 0.040618271
-0.078678012 0.049427997 0.066738009
-0.065709919 -0.060507767 -0.019550081
-0.062290184 -0.060517766 -0.029739823
0.072798342 0.056997709 0.028381662
0.088559233 0.056997709 0.090880767
0.07016819 0.056997709 0.017961813
0.078048639 0.056997709 0.049221363
0.085929081 0.056997709 0.080470912
0.083308935 0.056997709 0.070051067
0.075428486 0.056997709 0.038801514
0.080678791 0.056997709 0.059631214
0.050967284 -0.047798257 -0.048147283
-0.047820777 0.04474818 -0.046039231
-0.072609402 0.044488188 0.00010940805
0.11969902 0.051587917 0.11066099
-0.081129141 -0.038508616 0.0052591451
-0.022041708 0.017849216 -0.068748295
-0.021931702 0.028568804 -0.068408296
0.084759608 0.054307811 0.1064104
0.052580226 0.053517841 0.10641977
0.074039817 0.054047819 0.10641019
0.063310012 0.053777829 0.10641998
-0.044771038 0.017739221 -0.05666896
-0.044981025 0.028448809 -0.056068983
0.042220201 -0.061987709 0.094679803
-0.014609102 -0.061987709 0.073999107
0.011170635 -0.061947715 0.086169362
-0.043018755 -0.061987709 0.063658759
0.021520492 -0.061957709 0.089009508
-0.024958959 -0.061977711 0.07115896
0.031870347 -0.061977711 0.091849655
-0.0011319543 0.056987707 -0.060638051
0.069797277 -0.051528111 -0.029597275
0.084548973 -0.061997712 0.072911032
0.084578522 -0.061997712 0.050041474
0.07387872 -0.061997712 0.049411282
0.070318639 -0.061997712 0.041581359
-0.061660353 -9.6159056e-08 -0.038149647
-0.061660353 -0.004999904 -0.038149647
-0.066150114 -0.0099997111 -0.029789891
-0.066150114 0.0049997112 -0.029789891
-0.073208079 -0.057267893 0.068658076
0.014127546 0.0028497945 -0.071327545
0.01372756 0.013559382 -0.071017563
0.040930383 -0.059837792 0.10289961
0.099116795 0.045438152 -0.025336798
0.10967661 0.044138204 -0.024036616
0.14558619 -0.058317851 -0.010566186
-0.037311215 0.038678411 -0.058518782
-0.085557371 -0.046838295 0.092937373
-0.027028024 -0.016179472 0.11761802
0.00027785703 -0.060507767 -0.069027856
0.010947669 -0.060507767 -0.068157665
0.05688829 0.056997709 0.010131709
-0.09253709 -0.0060298638 0.10072708
-0.014121896 -0.028249009 -0.070558101
0.042989422 -0.060647763 0.054980576
0.14483847 -0.033238817 0.10704154
0.14483848 -0.0065798429 0.10798153
0.16071811 -0.0071798195 0.10508188
0.16865793 -0.01414955 0.10339206
0.13690867 -0.012949597 0.10920134
0.14483848 -0.01990933 0.10751153
0.16071811 -0.020509306 0.10460189
0.13690865 -0.026269086 0.10873136
0.13690865 -0.039598573 0.10825136
0.12896882 -0.03263884 0.10995118
0.12896883 -0.0059798658 0.11089116
0.12896881 -0.045968328 0.10947119
0.17658776 -0.0077797966 0.10217224
0.1527783 -0.013549574 0.10629171
0.15277828 -0.02686906 0.10582171
0.12896882 -0.019309353 0.11042117
-0.094867729 -0.031518884 0.065167725
0.05965738 0.029128781 -0.034457374
0.090499699 0.024818948 0.11703029
0.067368232 -0.060997747 0.017621765
0.090499699 -0.029818946 0.11703029
-0.089548461 0.029278779 0.032898448
0.00089129247 0.049507994 0.11001871
0.024010884 0.049048014 0.11188911
0.011381124 0.048538033 0.11175888
0.041177243 -0.0077297986 -0.059927247
0.038667269 -0.0180494 -0.061127272
0.060218696 -0.062487692 0.034441303
0.064628422 -0.06249769 0.024711577
-0.016441742 -0.06249769 -0.064918257
-0.065600105 -0.039518576 -0.02908989
-0.069099911 -0.03160888 -0.022820085
-0.067879997 -0.024029171 -0.025790006
-0.050550748 -0.060517766 -0.047329254
-0.05724046 -0.060517766 -0.038999546
-0.04277103 -0.060517766 -0.05444897
-0.033881318 -0.060517766 -0.060368679
-0.024649074 -0.06124774 0.065459073
0.029780585 -0.059947789 0.10219941
-0.03339139 0.028468808 -0.063608609
-0.033741388 0.017799219 -0.063828617
0.05847853 0.061527532 0.02414147
0.10150947 0.013409387 0.11545054
0.041970205 0.056987707 0.0945898
-0.043048754 0.056987707 0.063638754
-0.014709101 0.056987707 0.073959097
0.021420492 0.056957707 0.088969506
0.011140636 0.056947712 0.086159363
-0.024988959 0.056977708 0.071148962
0.031690348 0.056977708 0.091779649
0.1655557 0.051487919 -0.015835699
-0.039167825 -0.050378159 0.11600782
0.090719692 0.035768524 0.11660031
0.090719692 -0.040768526 0.11660031
-0.055000667 0.001939829 -0.047599327
0.0057176929 -0.018029403 -0.072117686
0.031087328 -0.0025299988 -0.065787323
0.10412671 0.04812805 -0.024516713
-0.059967402 0.033338621 0.1168074
0.05451737 -0.056247931 -0.039967369
-0.045760997 -0.028239008 -0.055569004
-0.015618604 -0.060677763 0.098888606
0.063979581 -0.061997712 0.084270418
0.052700032 -0.061997712 0.096099973
0.052700032 0.056997709 0.096099973
0.06202957 0.056997709 0.081790432
0.051409777 0.056997709 0.081790224
0.063319825 0.056997709 0.096100174
0.063319825 -0.061997712 0.096100174
0.050119527 0.056997709 0.067490473
0.084559411 -0.061997712 0.096090585
0.064639345 -0.061997712 0.072450653
0.084559411 0.056997709 0.096090585
0.060739323 0.056997709 0.067490682
0.048829276 0.056997709 0.053190723
0.072649367 0.056997709 0.081790626
0.054679304 -0.061997712 0.060620695
0.053359784 -0.061997712 0.084270217
0.073939621 -0.061997712 0.096090376
0.054019544 -0.061997712 0.072450452
0.073939621 0.056997709 0.096090376
0.074599378 -0.061997712 0.084270626
-0.017018255 0.042978249 0.11562826
-0.050570823 -0.028239008 -0.051239178
-0.04794091 -0.038328622 -0.053259093
0.0093476241 0.0035997652 -0.072087631
0.012127585 0.013809374 -0.071277581
-0.05080083 -0.007589804 -0.05208917
0.022140872 0.050777946 0.10946913
0.011541074 0.050457962 0.10933892
0.00094127585 0.050147973 0.10920872
0.032740671 0.051087935 0.10959932
-0.088897049 -0.0076398021 0.10639706
-0.074598894 -0.054218009 0.025008889
-0.07154914 -0.053988021 0.014859144
-0.095007829 -0.006729837 0.059287839
-0.048100792 -0.056247931 -0.047429204
-0.068918481 -0.060567766 0.052088477
0.034199703 -0.061317738 0.060860295
-0.07492844 -0.056927904 0.047718447
0.038067266 0.0019898275 -0.061947264
0.16160804 -0.057157896 0.10143197
-0.048330467 0.060497571 -0.030589532
0.092667058 -0.055827949 -0.018187057
-0.095597506 0.026688877 0.075877503
-0.048210908 -0.028239008 -0.053459086
-0.043211088 -0.028239008 -0.057568915
-0.045490999 -0.038328622 -0.055378996
0.015067532 -0.0077197989 -0.071117535
-0.093017489 0.033498611 0.07935749
-0.030628359 0.055747755 0.096568361
-0.060000435 -0.017939406 -0.040549565
0.13657714 -0.061047748 0.029472871
0.14848725 -0.060807753 0.047882743
0.14782746 -0.060827754 0.058422528
0.15157759 -0.060747758 0.068072416
0.017037502 -0.0078097954 -0.070667505
0.014567547 -0.0180694 -0.070847549
-0.035341233 -0.06249769 -0.057378769
0.043290462 0.051577915 0.10940954
0.053800255 0.052247889 0.10889974
-0.092257105 -0.016169474 0.1004871
-0.031421281 -0.063497655 -0.055958722
-0.040160999 -0.063497655 -0.050078999
0.064537585 -0.06249769 -0.018887583
-0.057800438 0.038338427 -0.038689554
-0.017281819 -0.028249009 -0.069858178
-0.014311885 -0.038348619 -0.070198119
-0.0023421415 -0.038568612 -0.071567863
-0.0013321684 -0.028399004 -0.071957834
-0.023711661 -0.028309004 -0.06795834
-0.021251716 -0.038518615 -0.068408281
0.049307495 0.053297848 -0.038637504
-0.045380834 0.047528073 -0.04672917
0.014317704 -0.06249769 -0.062917709
0.024347572 -0.06249769 -0.059797574
-0.070309572 0.051747907 -0.0064504221
-0.058677413 0.0027097994 0.11790741
-0.060047392 0.013119398 0.11753739
0.1242191 0.0027497979 0.11960089
0.10775942 -0.0077497978 0.11960058
0.1242191 -0.0077497978 0.11960089
0.10775942 0.0027497979 0.11960058
0.11598926 -0.0077497978 0.11960074
0.11598926 0.0027497979 0.11960074
-0.075239584 -0.017619418 -0.011500422
-0.074039631 -0.037778642 -0.012500376
-0.078519389 -0.007539806 -0.004930608
-0.075529546 -0.027699029 -0.0099704526
-0.077029474 -0.017619418 -0.0074505284
-0.04400095 -0.056247931 -0.051269047
-0.061397366 0.013119398 0.11750737
-0.062717333 0.0027097994 0.11780733
-0.024498079 -0.025479116 0.11729807
-0.010748346 -0.02948896 0.11715834
-0.0040084808 -0.037528653 0.11687848
-0.024768081 -0.037538651 0.11687808
0.023500983 -0.045558345 0.11659902
0.0030013865 -0.033498805 0.11701861
-0.017758213 -0.033518806 0.11701821
0.030510854 -0.041528501 0.11673915
-0.091128215 -0.041928481 0.043948207
-0.083288252 -0.05085814 0.049578253
-0.096127421 0.015099322 0.080057412
-0.095777437 0.025558921 0.079497434
-0.072239317 0.051757909 0.0051893182
0.14645614 0.052897863 -0.012376133
0.15686594 0.053067859 -0.011155955
-0.094957843 0.0019098301 0.058937844
0.058698539 0.058337655 0.024771459
-0.058290504 -0.027669031 -0.042269498
0.061467782 0.056997709 -0.011547785
0.14433646 0.055607758 0.0026835352
0.10513902 0.056127742 0.096550971
0.094879262 0.056237739 0.098590732
0.024399877 -0.06249769 0.059990123
0.033719607 -0.06249769 0.055220395
0.031247348 0.030128745 -0.064487353
0.12027919 -0.016479462 0.12010081
0.073949769 -0.059907794 0.10398023
0.084359556 -0.060387775 0.10303045
-0.071297191 0.0027497979 0.11668719
0.11269668 0.051847905 -0.017746679
-0.094457753 0.031618685 0.064377755
-0.093067981 0.032868635 0.054097973
0.03584015 -0.061997712 0.085509852
0.028140159 -0.061997712 0.078449838
0.043540135 -0.061997712 0.092569865
0.020440172 -0.061997712 0.07139983
0.034659993 -0.061997712 0.076240003
0.11416921 -0.018499384 0.11499079
-0.090978272 -0.036728684 0.040838271
-0.091888174 -0.027199049 0.044998173
-0.092188187 -0.017229432 0.04396819
-0.088077195 0.038928404 0.099097207
0.059987444 0.049727987 -0.030827444
-0.045098916 -0.060647763 0.053238913
-0.035531331 -0.028279006 -0.062608674
-0.033311389 -0.038438618 -0.063418612
-0.02514147 -0.06249769 -0.059488531
-0.015221723 -0.06249769 -0.062708274
0.094949275 0.056037746 0.099450722
0.068487309 0.046588112 -0.02913731
0.10782683 -0.057597879 -0.014866829
0.09765707 -0.057927866 -0.012677066
-0.090837702 -0.036818679 0.070177712
-0.093857452 -0.037138667 0.080137461
0.13999785 -0.06097775 0.070412152
0.14879765 0.055807751 0.068632349
0.1249982 -0.061287735 0.073431805
0.1249982 0.056287732 0.073431805
0.1249982 -0.061287735 0.073431805
0.1249982 0.056287732 0.073431805
0.14086804 0.055967748 0.08064197
0.14750788 -0.060827754 0.079302117
0.13249822 -0.061137743 0.082331777
0.124997 0.056287732 0.010993004
0.124997 -0.061287735 0.010993004
0.124997 -0.061287735 0.010993004
0.124997 0.056287732 0.010993004
0.14086744 0.055967748 0.04942257
0.1249976 0.056287732 0.042212401
0.12499779 -0.061287735 0.052622199
0.12499779 -0.061287735 0.052622199
0.12499779 0.056287732 0.052622199
0.1249976 -0.061287735 0.042212401
0.12499779 0.056287732 0.052622199
0.1249976 -0.061287735 0.042212401
0.1249976 0.056287732 0.042212401
0.13292721 0.056127742 0.030202786
0.14086764 0.055967748 0.059832368
0.1249974 0.056287732 0.031802602
0.1249974 -0.061287735 0.031802602
0.1249974 -0.061287735 0.031802602
0.1249974 0.056287732 0.031802602
0.13292761 0.056127742 0.051022384
0.1329274 0.056127742 0.040612586
0.13292801 0.056127742 0.071831986
0.13249741 -0.061137743 0.040702578
0.13999745 -0.06097775 0.049592551
0.1249972 0.056287732 0.021392804
0.1249972 -0.061287735 0.021392804
0.1249972 -0.061287735 0.021392804
0.1249972 0.056287732 0.021392804
0.13999765 -0.06097775 0.060002349
0.13292781 0.056127742 0.061422184
0.13249762 -0.061137743 0.051102377
0.13249782 -0.061137743 0.061512172
0.1249984 0.056287732 0.0838416
0.1249984 -0.061287735 0.0838416
0.1249984 -0.061287735 0.0838416
0.1249984 0.056287732 0.0838416
0.14086783 0.055967748 0.070232168
0.14750768 -0.060827754 0.068892322
0.13249722 -0.061137743 0.030292775
0.13999805 -0.06097775 0.080811948
0.124998 -0.061287735 0.063022003
0.124998 -0.061287735 0.063022003
0.124998 0.056287732 0.063022003
0.124998 0.056287732 0.063022003
0.13292821 0.056127742 0.082241789
0.14879785 0.055807751 0.079042152
0.13249803 -0.061137743 0.071921974
0.067860059 0.050427962 0.11292994
0.078249857 0.050967939 0.11294015
0.047080457 0.049348 0.11289954
0.057470262 0.049887981 0.11291974
-0.01623895 -0.061877713 0.080358952
-0.0065088719 -0.06170772 0.094088867
-0.034298748 -0.061887715 0.072858743
0.0018308478 -0.061857715 0.087869152
-0.061949257 -0.063247658 0.01848926
-0.057879154 -0.06274768 0.028049154
0.13887729 0.056007747 0.039412726
0.12697695 0.056247737 0.010593046
0.14284737 0.05592775 0.049022615
0.15474771 0.055687759 0.077842295
0.13094707 0.05616774 0.02019294
0.13491717 0.05608774 0.029802831
0.14681748 0.055847753 0.058632508
0.1507872 0.055767756 0.047452796
0.15475731 0.055687759 0.057062689
0.15077761 0.055767756 0.068232395
-0.088237077 0.031938672 0.10527708
0.0367104 0.055997744 0.099519596
0.021850659 0.05638773 0.098159343
0.047080189 0.056247737 0.09890981
0.0056602778 0.056997709 0.06210972
0.15673766 0.055637758 0.077452332
0.14086723 0.055967748 0.03902277
0.15674706 0.055637758 0.046272933
0.17261709 0.055317771 0.063922897
0.132937 0.056127742 0.019802986
0.15673745 0.055637758 0.067062534
0.14086704 0.055967748 0.028632969
0.15673725 0.055637758 0.056662735
0.1726173 0.055317771 0.074312702
0.16467728 0.055477768 0.065492719
0.16468708 0.055477768 0.055092916
0.18055712 0.055157777 0.072742879
0.16467749 0.055477768 0.075882517
0.14880705 0.055807751 0.037452951
-0.04119115 -0.028309004 -0.059058852
-0.039431199 -0.038518615 -0.059838798
-0.053917784 -0.054178011 0.10317779
-0.063550256 0.011599457 -0.034659747
-0.064779922 -0.060497768 -0.018920075
0.088516966 -0.049698185 -0.026696973
-0.029851494 -0.028279006 -0.0655085
-0.027721547 -0.03842862 -0.066048458
-0.095747411 0.025798911 0.080607414
-0.061199684 0.056997709 -0.0027803183
0.037037283 -0.0180494 -0.062177286
0.036277279 -0.0077297986 -0.063057289
-0.068489954 -0.027819024 -0.024310049
-0.066210069 -0.043308429 -0.027609933
-0.069709882 -0.035408735 -0.021340121
-0.070929796 -0.042988442 -0.018380206
0.050809138 -0.060577765 0.047960866
-0.078618638 -0.052798063 0.034358636
-0.059300456 -0.028289007 -0.040879544
-0.05785051 -0.038448617 -0.042309493
0.02591739 -0.018019402 -0.067577392
0.026167382 -0.0076598013 -0.067907378
0.014077547 -0.0076798005 -0.071337543
0.013587561 -0.018029403 -0.071067572
0.11545919 -0.019699337 0.11499082
0.07680995 -0.054128014 0.11580005
0.056120332 -0.053088054 0.11537966
0.045770526 -0.052568071 0.11517947
0.066460133 -0.053608034 0.11558986
-0.036828641 0.056827717 0.075928643
0.121299 -0.030188935 0.111431
0.099069491 -0.05164811 0.11471051
0.10647933 -0.044498384 0.11361067
0.11388917 -0.037338659 0.11252084
0.074877769 -0.061997712 0.0010322295
0.073747955 -0.061997712 0.0098520368
0.084957615 -0.061997712 0.0034123771
0.14562753 -0.060867757 0.058862481
0.13437717 -0.061097745 0.029912818
0.15312774 -0.060717758 0.078172252
0.14187741 -0.06094775 0.04921259
0.1381273 -0.061017748 0.039562706
0.12687695 -0.06124774 0.010613047
0.15003742 -0.060777757 0.057982579
0.13062707 -0.061177742 0.020262932
0.14937763 -0.06078776 0.068522364
-0.072138891 -0.056467924 0.027548889
-0.001938757 -0.05786787 0.10461876
0.040447634 0.058747642 -0.040337637
0.15844804 -0.058217857 0.098641962
0.14814825 -0.058487844 0.099571742
-0.061460339 0.029278779 -0.037089664
-0.070777394 0.043218236 0.10666738
-0.056199256 0.056997709 0.024589254
-0.057240542 0.029288774 -0.043289464
0.1147292 0.011179473 0.1150908
-0.013909222 -0.061567724 0.068509221
-0.037529256 0.060497571 0.043199252
-0.046829272 0.056997709 0.032849275
0.013507865 0.060497571 -0.055397864
0.042527236 -0.0077297986 -0.059027236
0.042707242 -0.0180494 -0.058427237
0.023237742 0.060497571 -0.052047741
-0.028348481 -0.061607726 0.092498481
-0.089617066 0.01253942 0.10472707
-0.056000616 0.011099476 -0.045919389
0.0084378459 0.05409782 -0.061457846
-0.090868399 -0.00690983 0.034418393
-0.061748236 0.056727719 0.071728237
-0.064848371 0.056837715 0.061888367
0.044197232 0.0019998266 -0.057737228
0.070429087 0.056997709 0.064760916
0.062898897 0.056997709 0.0477411
0.046608992 0.056997709 0.036161009
0.055358719 0.056997709 0.030711282
0.054748945 0.056997709 0.041951053
-0.093887918 0.019719146 0.055817924
-0.094267808 0.027658841 0.061527811
-0.092878036 0.028898789 0.051248033
0.058368564 0.057327695 0.025731437
0.054178819 -0.063497655 0.034751184
0.058908552 -0.063497655 0.025591448
0.15190832 0.020819103 0.10602169
0.12883885 0.00082987174 0.11092116
0.12883884 0.027488846 0.10997117
0.1749678 0.00082987174 0.1025322
0.12883882 0.04081833 0.10950118
0.12883884 0.014159359 0.11045116
0.15190832 0.0074996152 0.10649168
0.15958816 0.00082987174 0.10533185
0.13652867 0.0074996152 0.10929133
0.14421849 0.014159359 0.10765151
0.13652866 0.034148585 0.10834135
0.16727798 0.0074996152 0.10369203
0.13652866 0.020819103 0.10881133
0.14421849 0.00082987174 0.1081215
0.14421847 0.027488846 0.10718153
0.15958814 0.014159359 0.10486186
-0.038081244 -0.038518615 -0.060728759
-0.037121281 -0.028309004 -0.061708722
0.11720915 -0.019129358 0.11508085
0.18452758 -0.02714905 0.10004243
0.18452756 -0.052568071 0.099142455
0.16865791 -0.039878562 0.10247208
0.16865791 -0.052588072 0.1020221
0.16865793 -0.027169049 0.10292207
0.13690864 -0.052618071 0.10779136
0.18452756 -0.039858565 0.099592447
0.1607181 -0.033528805 0.1041419
0.14483845 -0.046258319 0.10658155
