# .PCD v0.7 - Point Cloud Data file format
VERSION 0.7
FIELDS x y z
SIZE 4 4 4
TYPE F F F
COUNT 1 1 1
WIDTH 1478
HEIGHT 1
VIEWPOINT 0 0 0 1 0 0 0
POINTS 1478
DATA ascii
0.19000001 -0.01446 0.056919999
0.20981 0.050489999 -0.055270001
0.20489001 -0.028999999 0.057569999
0.23396 -0.028999999 0.05759
0.24543001 -0.054809999 -0.043230001
0.30013001 -0.052760001 0.01477
0.30217001 -0.052609999 -0.01414
0.19023001 -0.0295 -0.01488
0.19014001 -0.0295 0.0141
0.19032001 -0.0295 -0.04386
0.19005001 -0.0295 0.043090001
0.31713 -0.049419999 0.045299999
0.20480001 -0.028999999 0.057459999
0.27632999 0.048999999 0.04978
0.26784003 0.056899998 0.031330001
0.23426001 0.048999999 0.054170001
0.20542002 0.048999999 0.055089999
0.27302003 0.03748 -0.05342
0.23923001 0.03802 -0.055259999
0.30166 0.039239999 -0.051739998
0.20537001 0.048999999 -0.05604
0.36473 -0.047970001 0.01456
0.36566001 -0.047899999 -0.01413
0.25969002 -0.046089999 0.053070001
0.19044001 -0.02919 0.01315
0.19041002 -0.029309999 -0.01545
0.19047001 -0.029060001 0.041749999
0.19038001 -0.029440001 -0.044050001
0.26227 -0.01732 -0.045159999
0.28084001 -0.025110001 -0.02485
0.2816 -0.00496 -0.02507
0.31841001 0.056460001 0.01431
0.32491001 0.05638 -0.01354
0.26210001 -0.025110001 -0.044950001
0.19628002 0.01236 0.0581
0.28591001 0.024429999 -0.031939998
0.28902 -0.053479999 -0.02939
0.26065999 -0.055190001 -0.030929999
0.34506002 -0.049449999 -0.02122
0.19487001 0.01395 0.05765
0.19042002 -0.036979999 0.01381
0.19074 -0.036929999 0.042210001
0.2834 0.01287 -0.024289999
0.26395002 0.01184 -0.044939999
0.25684002 0.03576 0.053939998
0.20517001 0.048999999 0.055349998
0.19019002 -0.036819998 0.042070001
0.19023001 -0.036940001 0.01376
0.32814002 -0.050719999 0.01382
0.33124 -0.050489999 -0.01429
0.28213 0.0084699998 -0.025189999
0.26309001 0.0028200001 -0.045310002
0.31751001 0.056480002 0.01431
0.29201001 0.05675 -0.01523
0.32221001 0.05641 -0.01354
0.28100002 -0.02496 0.02489
0.28176001 -0.0048099998 0.0251
0.26275003 -0.016890001 0.04487
0.19037001 -0.03686 0.042119998
0.19035001 -0.029370001 -0.01526
0.19041002 -0.029130001 0.04194
0.19026001 -0.029379999 0.01372
0.26256001 -0.02496 0.044670001
0.28351003 0.01337 -0.02427
0.26427001 0.01334 -0.0449
0.24940002 -0.01409 0.055149999
0.29921001 -0.0385 -0.05136
0.30885002 0.026079999 -0.03032
0.26416001 0.01284 -0.044909999
0.32094002 -0.051259998 -0.01381
0.3247 -0.050980002 0.01398
0.21577001 -0.055470001 -0.047940001
0.19034001 -0.015 0.057599999
0.28407001 0.017419999 -0.026459999
0.19038001 -0.037 0.01361
0.19063 -0.037 0.041620001
0.19052002 -0.015 0.057810001
0.32311001 0.056400001 -0.01354
0.29912001 -0.0385 0.051229998
0.23301001 -0.03559 0.055210002
0.26091 -0.034949999 0.053860001
0.28881001 -0.034320001 0.052510001
0.20512001 -0.036230002 0.056559999
0.26222003 0.045630001 0.05322
0.28930002 0.038869999 0.052239999
0.26072001 -0.034949999 -0.05424
0.23290001 -0.03559 -0.055750001
0.20509002 -0.036230002 -0.057259999
0.28854001 -0.034320001 -0.052719999
0.19032001 -0.029309999 0.01353
0.28377002 0.01385 -0.024250001
0.26504001 0.01479 -0.044829998
0.19000001 0.0072400002 -0.057689998
0.19000001 0.035080001 -0.057500001
0.32616001 -0.0295 0.04301
0.26342002 0.0084800003 -0.045260001
0.29585001 0.02523 0.0088
0.22072001 0.053070001 0.05229
0.19066001 -0.036979999 0.041820001
0.22086 -0.050250001 -0.055509999
0.28536001 -0.053720001 0.02991
0.22083001 0.052560002 0.05322
0.31285 -0.051830001 0.028550001
0.33569002 -0.050039999 0.016960001
0.2324 0.036869999 -0.0557
0.25992 0.036320001 -0.054200001
0.28744 0.035769999 -0.052700002
0.20488001 0.037420001 -0.0572
0.26295 -0.00053000002 -0.045299999
0.26478001 0.0143 -0.044849999
0.20532002 -0.057250001 -0.034049999
0.23276001 -0.05649 -0.03246
0.26237002 -0.02908 -0.044380002
0.28112 -0.02923 -0.02428
0.26201001 -0.028999999 -0.044849999
0.28075001 -0.028999999 -0.02475
0.19029 -0.02925 0.042319998
0.24549001 -0.035909999 -0.055039998
0.28612 -0.035909999 -0.052790001
0.31350002 -0.034639999 -0.05133
0.28229001 0.0113 -0.02516
0.26358002 0.01131 -0.045230001
0.26237002 -0.029130001 -0.044459999
0.28113002 -0.029379999 -0.024499999
0.26010001 -0.055210002 0.0232
0.33857 0.048999999 -0.044059999
0.20526001 -0.057250001 0.033879999
0.23258001 -0.05649 0.03249
0.31148002 0.048420001 -0.047049999
0.28113002 -0.02933 -0.024420001
0.28146002 -0.029449999 0.024219999
0.28139001 -0.029300001 0.024119999
0.26286 -0.029100001 0.044039998
0.26228002 -0.028999999 -0.044500001
0.28084001 -0.028999999 -0.024630001
0.26293001 -0.02925 0.044130001
0.26490003 0.01525 -0.045230001
0.28335002 0.01525 -0.02544
0.2809 -0.028999999 0.02478
0.26245999 -0.028999999 0.044569999
0.31646001 -0.049109999 0.047180001
0.34331 -0.047680002 0.044569999
0.26561999 0.01743 -0.046250001
0.28244001 0.0113 0.0252
0.26402003 0.0113 0.044950001
0.34484002 -0.048969999 -0.034249999
0.23506001 -0.028999999 0.056699999
0.38337001 -0.04631 -0.0026700001
0.29143 0.055089999 0.037069999
0.31809002 0.05525 0.033410002
0.31821001 -0.050480001 0.039069999
0.26219001 -0.028999999 -0.04462
0.28094 -0.02908 -0.02451
0.26435 0.01282 0.044909999
0.28255001 0.01181 0.025189999
0.28264001 0.01282 0.025289999
0.19448002 0.01319 0.058030002
0.26439002 0.01333 0.04496
0.28269002 0.01333 0.02534
0.28099 -0.028999999 0.024669999
0.26273 -0.028999999 0.044220001
0.3211 0.04606 0.048920002
0.26424003 0.01231 0.044920001
0.26678002 0.050409999 0.050379999
0.31849 -0.050969999 0.035780001
0.33068001 0.051240001 -0.043299999
0.34043002 -0.035270002 -0.04981
0.21412002 0.01233 0.061099999
0.34024 -0.035270002 0.049929999
0.28386003 0.017419999 0.02689
0.26605999 0.017419999 0.045979999
0.28266001 0.01183 -0.024870001
0.28271002 0.01476 0.026070001
0.26440001 0.0138 0.045200001
0.20137002 -0.057330001 -0.02593
0.26264 -0.028999999 0.044330001
0.30934 0.029410001 0.03176
0.35659 0.0559 -0.02124
0.26895002 0.056150001 0.03559
0.24263 0.05638 0.03779
0.28523001 0.021029999 -0.028550001
0.28349 0.01478 -0.025040001
0.28113002 -0.029100001 0.024490001
0.28802001 0.046750002 0.05184
0.34048 0.043760002 0.04936
0.26179001 0.048250001 0.05308
0.31425002 0.045260001 0.0506
0.27173001 0.03805 -0.053459998
0.26177001 0.048190001 0.05311
0.28797001 0.046560001 0.051910002
0.31417 0.04493 0.05071
0.34036002 0.043299999 0.049509998
0.28799 0.04662 0.051890001
0.31422001 0.04513 0.050639998
0.34038001 0.043370001 0.049490001
0.31420001 0.045060001 0.050670002
0.36946002 0.0557 -0.01521
0.37276 0.05565 0.0108
0.35486001 0.05593 0.01389
0.2827 0.01429 0.025830001
0.26380002 -0.055020001 -0.023150001
0.22700001 0.046 0.0581
0.34041002 0.043499999 0.049449999
0.2922 0.01023 0.0096000005
0.29149002 -0.01592 0.01082
0.28424001 0.01908 -0.027589999
0.29112002 -0.015769999 0.0082599996
0.30440003 0.050930001 -0.045680001
0.27518001 0.048500001 0.051419999
0.30122 0.047510002 0.049219999
0.24458 -0.016179999 0.0581
0.20422001 -0.036180001 0.056600001
0.28251001 -0.034010001 0.052839998
0.25641 -0.034729999 0.054090001
0.23032001 -0.035459999 0.055349998
0.26249 0.048190001 -0.053429998
0.31458002 0.04496 -0.050719999
0.34063002 0.04335 -0.049369998
0.28854001 0.046580002 -0.052080002
0.24683002 0.034699999 0.0581
0.24234001 0.0089699998 0.0581
0.26516002 0.01525 0.045139998
0.28297001 0.01525 0.02605
0.29094002 -0.015690001 0.0069900001
0.29202002 0.01031 0.00832
0.19686002 0.01368 0.0581
0.31505001 0.039810002 0.050930001
0.34100002 0.038989998 0.049699999
0.21785001 -0.055840001 0.046089999
0.34019002 -0.049699999 0.01749
0.26491001 0.01476 0.045159999
0.31569001 0.035500001 0.051109999
0.22969002 -0.035399999 -0.055939998
0.25536001 -0.034639999 -0.05455
0.28104001 -0.033879999 -0.053160001
0.20401001 -0.03616 -0.057330001
0.26422 -0.0295 0.044300001
0.37504002 0.055599999 -0.01763
0.28496 -0.053750001 -0.022360001
0.34399 -0.047979999 0.042690001
0.31549001 0.037250001 0.051040001
0.34081 0.040739998 0.049619999
0.28841001 0.044 0.052019998
0.31574002 0.056120001 -0.030309999
0.29090002 0.055679999 -0.036029998
0.25892001 -0.055289999 0.031199999
0.25964001 -0.035909999 0.053879999
0.31543002 -0.034639999 0.05119
0.34079 -0.035909999 0.049880002
0.22661 -0.001 0.0581
0.24507001 0.049959999 0.052870002
0.21977001 0.05187 0.054079998
0.26528001 -0.0294 -0.05398
0.29074001 0.054110002 0.039390001
0.31602001 0.052299999 0.040380001
0.19733001 0.038660001 0.056759998
0.20375001 0.037319999 -0.057270002
0.27955002 0.035089999 -0.053169999
0.22902001 0.03658 -0.0559
0.25429001 0.035840001 -0.054529998
0.31563002 -0.048629999 0.048470002
0.34082001 -0.046239998 0.048420001
0.21976002 0.05178 -0.05469
0.24492002 0.049929999 -0.05333
0.37298 -0.047370002 0.019789999
0.23686001 0.048999999 -0.054299999
0.22829002 -0.05666 -0.024669999
0.21974002 0.052019998 -0.05469
0.24486001 0.050639998 -0.053309999
0.25002003 -0.05311 0.051100001
0.21887001 0.055879999 -0.04504
0.24488002 0.050409999 -0.053320002
0.28430003 0.019370001 0.027969999
0.31374002 0.035500001 -0.05125
0.21390001 -0.01355 0.0581
0.29189003 -0.00104 -0.0096800001
0.26548001 -0.02925 -0.053970002
0.30874002 0.049010001 0.045000002
0.22771001 0.046 0.059599999
0.24010001 0.0085699996 0.0581
0.24010001 0.033519998 0.0581
0.32944 -0.05051 0.01574
0.24156001 0.056899998 -0.035640001
0.31579 0.056419998 -0.02863
0.29104 0.05658 -0.030959999
0.26630002 0.056740001 -0.033300001
0.31671 0.05328 0.038059998
0.29122001 -0.0295 0.021290001
0.31482002 -0.034000002 -0.051279999
0.29443002 0.055860002 0.03376
0.31909001 0.055500001 0.032299999
0.30868 0.048999999 0.045499999
0.29216 0.050859999 0.046459999
0.31650001 0.05122 0.042739999
0.25261003 -0.034159999 0.054299999
0.22803001 -0.035110001 0.055470001
0.27718002 -0.033199999 0.053130001
0.20346001 -0.03607 0.056639999
0.21746001 -0.055240002 -0.049029998
0.24234001 0.033920001 0.0581
0.24301001 0.056329999 -0.039500002
0.31599 0.056329999 -0.02918
0.26733002 0.056329999 -0.036060002
0.29166001 0.056329999 -0.032620002
0.31339002 -0.05043 -0.039799999
0.20730001 0.0093099996 0.0581
0.19000001 0.036770001 0.05663
0.19000001 0.01231 0.05669
0.19000001 -0.028999999 -0.046160001
0.29836002 0.025769999 0.01075
0.28920001 -0.053470001 0.02214
0.28060001 0.056869999 0.00685
0.26784003 0.057009999 -0.0079199998
0.29335001 0.056740001 0.02162
0.26247001 0.05706 0.023159999
0.26671001 0.05658 -0.034400001
0.29146001 0.05641 -0.03207
0.24280001 0.05641 -0.03895
0.23122001 -0.035500001 0.055300001
0.25911 -0.034869999 0.053950001
0.28341001 -0.034049999 0.052790001
0.38086 0.055500001 0.0050300001
0.26594001 0.055380002 0.038899999
0.24163002 0.056120001 0.038899999
0.23652001 0.048999999 0.053800002
0.31488001 -0.034000002 0.051240001
0.30891001 0.02647 0.031230001
0.29615 -0.0295 0.0042400002
0.30825001 -0.0295 0.025250001
0.19118001 0.056389999 0.02232
0.30235001 0.03517 0.044989999
0.25422001 -0.00078 0.054839998
0.30956 0.025769999 0.030449999
0.26692 0.056499999 -0.034960002
0.22252001 0.057319999 0.020780001
0.19164 0.057489999 0.02232
0.19164 0.057489999 -0.00183
0.29354 -0.05297 0.033059999
0.29050002 0.02892 0.035119999
0.29529002 -0.051460002 0.044470001
0.31925002 -0.049830001 0.0429
0.24238001 0.05658 -0.03785
0.20615001 -0.057259999 0.02513
0.30847001 -0.05215 0.02177
0.21314001 -0.056510001 0.043140002
0.34165001 -0.046720002 0.047139999
0.30423 0.038079999 -0.051660001
0.31551 0.050639998 0.043590002
0.29183 0.050670002 0.046750002
0.24237001 -0.02925 0.049959999
0.29141 0.056120001 -0.03376
0.24275002 0.056109998 -0.04064
0.26658002 0.055679999 -0.039469998
0.29730999 0.025420001 0.01059
0.27605 0.056919999 -0.03019
0.29425001 -0.05212 0.04064
0.23998001 0.01235 0.061099999
0.29117 0.048999999 -0.047710001
0.31462002 0.049010001 -0.044539999
0.28211001 -0.033950001 -0.053089999
0.23076001 -0.035470001 -0.05587
0.25858003 -0.03483 -0.054359999
0.21390001 0.01075 0.058850002
0.21669 0.054730002 0.048450001
0.21390001 0.01075 0.060350001
0.21390001 0.034249999 0.058850002
0.32688001 0.05635 0.02911
0.21390001 0.034249999 0.0581
0.21390001 0.01075 0.0581
0.20329002 -0.03737 -0.056759998
0.22671002 -0.038120002 -0.055429999
0.25012001 -0.038869999 -0.054110002
0.27354002 -0.039620001 -0.052779999
0.23961002 0.057240002 -0.032249998
0.20641001 0.00801 0.0581
0.22761002 -0.00145 0.0581
0.21864001 -0.05432 -0.052469999
0.22684002 -0.038120002 0.054850001
0.27355 -0.039620001 0.05249
0.25019002 -0.038869999 0.05367
0.20348001 -0.03737 0.056030001
0.27276 0.03379 -0.053599998
0.20278001 0.037140001 -0.057330001
0.24943 0.034899998 -0.054839998
0.22611001 0.03602 -0.056079999
0.29979002 -0.032839999 -0.042410001
0.26683003 0.0559 -0.03833
0.20324001 -0.05731 0.033969998
0.22652 -0.056729998 0.032760002
0.24196002 0.050810002 0.052999999
0.21873002 0.05215 0.054129999
0.24005002 0.053599998 0.04826
0.26327002 0.05277 0.046909999
0.29010001 0.055149999 -0.0383
0.31332999 0.05452 -0.037129998
0.35001001 0.055339999 0.03204
0.20274001 -0.035890002 0.05669
0.27218002 -0.031989999 0.053429998
0.22589001 -0.034589998 0.055599999
0.24904001 -0.033289999 0.054510001
0.31584001 0.050829999 0.043310001
0.20190001 0.033550002 -0.057519998
0.28169 0.03844 0.05263
0.25968 0.045480002 0.053350002
0.27794001 -0.033319999 0.053089999
0.25489002 -0.034499999 0.05418
0.22879001 -0.03523 0.055429999
0.32872 0.025520001 0.044199999
0.23015001 0.036680002 -0.055830002
0.28068 0.035190001 -0.053100001
0.25767002 0.03613 -0.054329999
0.23546001 -0.056170002 0.035909999
0.27165002 -0.031959999 -0.053750001
0.20267001 -0.035890002 -0.057410002
0.24866001 -0.033270001 -0.05497
0.22567001 -0.03458 -0.056189999
0.19000001 -0.028999999 0.045630001
0.28969002 0.046769999 0.05167
0.31927001 0.045299999 0.050099999
0.34215 0.043779999 0.04919
0.19109002 -0.056639999 0.023119999
0.19106001 -0.054469999 -0.045680001
0.19108 -0.055920001 0.00019000001
0.19107001 -0.055190001 -0.02275
0.31589001 -0.051399998 0.031950001
0.19024001 -0.028999999 -0.045389999
0.27357 0.048269998 0.052030001
0.29641002 0.046799999 0.051040001
0.19107001 0.052999999 -0.045620002
0.31353 0.048999999 -0.045650002
0.29081002 0.048999999 -0.048080001
0.19068001 -0.0031000001 -0.058649998
0.24591002 0.051890001 0.050900001
0.26863003 0.051089998 0.049180001
0.24010001 0.01187 0.060350001
0.24010001 0.034619998 0.058850002
0.22995001 -0.056609999 0.024289999
0.26081002 0.048379999 -0.053479999
0.32887 0.044640001 -0.049740002
0.28350002 0.04713 -0.05223
0.30618 0.045880001 -0.05099
0.21390001 0.01038 0.061099999
0.21390001 0.033130001 0.061099999
0.24026 0.057069998 -0.034219999
0.29343 0.055599999 0.03486
0.26065001 0.04738 -0.053580001
0.19110002 0.05435 0.044100001
0.19113001 0.056620002 -0.02361
0.19111001 0.05511 0.02153
0.19112001 0.05587 -0.00104
0.27399001 -0.040270001 -0.05274
0.20647001 -0.041919999 -0.056499999
0.25149 -0.040819999 -0.054000001
0.22898 -0.041370001 -0.05525
0.25821 -0.034820002 0.054000001
0.26694 0.055640001 0.037799999
0.30230001 -0.033690002 -0.045049999
0.19000001 -0.01784 -0.058079999
0.32663 0.036800001 -0.050469998
0.22700001 -0.0019 0.0592
0.22700001 -0.028100001 0.0592
0.24010001 -0.015 0.0592
0.21390001 -0.015 0.0592
0.26842999 0.049479999 -0.050960001
0.24195001 0.04597 -0.05469
0.30494002 0.041529998 -0.051440001
0.28286001 0.044360001 -0.052510001
0.26819003 0.050900001 -0.050009999
0.23815 0.047680002 0.054850001
0.21600001 0.04761 0.057020001
0.20172001 -0.033020001 -0.057580002
0.25897002 0.0022400001 0.049899999
0.21596001 0.047699999 0.056000002
0.23813 0.047729999 0.054340001
0.21594001 0.04775 0.055500001
0.33765 0.05291 0.038539998
0.26847002 0.048999999 -0.050969999
0.22700001 -0.0019 0.0581
0.22700001 -0.028100001 0.0581
0.22700001 -0.028100001 0.0603
0.24010001 -0.015 0.0581
0.24010001 -0.015 0.0603
0.21390001 -0.015 0.0603
0.28564 -0.0295 0.0038699999
0.27672002 -0.0295 0.02414
0.22344001 0.031849999 -0.056400001
0.24498001 0.03015 -0.055270001
0.20193002 0.02696 -0.057769999
0.23807001 0.04761 0.057020001
0.26875001 0.02079 -0.046
0.22705001 -0.0019 0.0603
0.20103002 -0.0295 0.057039998
0.22309001 -0.0295 0.055950001
0.24515 -0.0295 0.05486
0.24216001 -0.0295 0.045389999
0.26721001 -0.0295 0.053769998
0.23803002 0.047570001 0.0581
0.21597001 0.047570001 0.0581
0.21596001 -0.028489999 0.0581
0.23803002 -0.028480001 0.0581
0.31389001 0.048999999 -0.045279998
0.33386001 0.02551 -0.04538
0.20162001 -0.033020001 0.05686
0.21390001 0.033500001 0.060350001
0.20147002 -0.056299999 -0.045079999
0.24010001 0.0115 0.061099999
0.24010001 0.033500001 0.061099999
0.22479001 -0.001 0.059599999
0.19118001 -0.055860002 0.045469999
0.24231002 -0.05556 -0.03926
0.21581002 0.048069999 0.05548
0.23772001 0.048689999 0.054299999
0.20131001 -0.0295 -0.057750002
0.22321001 -0.0295 -0.056529999
0.24511001 -0.0295 -0.055319998
0.22362001 -0.033020001 -0.056370001
0.26702002 -0.0295 -0.054110002
0.19108 -0.055670001 0.045469999
0.19024001 -0.028999999 0.0451
0.21766001 0.053929999 0.05088
0.29162002 -0.05226 -0.039719999
0.20205002 -0.035659999 0.056729998
0.26735002 -0.030379999 0.053720001
0.22382002 -0.0339 0.05573
0.24559 -0.032140002 0.054730002
0.26228002 -0.052069999 -0.05164
0.24059001 -0.053909998 -0.049729999
0.22353001 -0.032140002 0.055819999
0.22624001 0.046 0.061099999
0.21483001 0.01475 0.061099999
0.29838002 0.056680001 -0.0078400001
0.31583002 0.056480002 -0.020919999
0.31113002 0.056540001 0.0069200001
0.28563002 0.056820001 -0.022609999
0.22342001 -0.031259999 -0.056449998
0.20192002 -0.034779999 -0.057500001
0.24532002 -0.031259999 -0.055240002
0.22661 -0.034770001 0.05556
0.27290002 -0.032170001 0.053380001
0.25117999 -0.033810001 0.054389998
0.26273 -0.0295 0.039560001
0.22160001 -0.0295 0.051210001
0.24366 -0.0295 0.05012
0.20203002 -0.035659999 -0.057459999
0.26712 -0.030379999 -0.054060001
0.22372001 -0.0339 -0.056329999
0.24542001 -0.032140002 -0.055190001
0.23760001 -0.02888 0.057720002
0.21582001 -0.02863 0.057980001
0.20191 -0.034779999 0.056770001
0.24544001 -0.031259999 0.05477
0.22338001 -0.031259999 0.055860002
0.22479001 -0.001 0.061099999
0.21026 -0.05683 0.039719999
0.23786001 0.04837 0.054310001
0.25103003 -0.040169999 -0.054030001
0.22762001 -0.039420001 -0.055360001
0.20602001 -0.041269999 -0.056540001
0.29163 -0.034320001 -0.052549999
0.236 -0.03559 -0.055580001
0.27000001 -0.034949999 -0.053720001
0.22345001 0.028550001 -0.05652
0.24496001 0.03345 -0.055149999
0.22343001 0.03514 -0.05627
0.2665 0.031750001 -0.054030001
0.20189001 0.036839999 -0.057390001
0.20194001 0.02531 -0.057829998
0.26651001 0.030099999 -0.054090001
0.24498001 0.0285 -0.055339999
0.22346 0.02691 -0.056589998
0.29673001 0.032559998 -0.037689999
0.25413001 -0.034389999 0.054219998
0.38873002 0.049010001 -0.0091300001
0.23775001 -0.02874 0.05785
0.20071001 0.05745 -0.029139999
0.27373001 0.033969998 -0.053539999
0.25235 0.035459999 -0.05466
0.22708002 0.036210001 -0.056019999
0.29450002 -0.052650001 0.03655
0.27312002 -0.054019999 0.037620001
0.25751001 -0.034770001 -0.054420002
0.31083 0.026620001 -0.033059999
0.26198 -0.0295 0.037190001
0.20028001 -0.0295 0.054669999
0.24142 -0.0295 0.043019999
0.22085001 -0.0295 0.048840001
0.19109002 0.02702 -0.058309998
0.28637999 0.02523 0.032880001
0.28400999 0.02156 0.03067
0.24010001 0.03387 0.060350001
0.29438001 0.031020001 -0.035409998
0.23553002 0.036869999 -0.05553
0.29057002 0.035769999 -0.052530002
0.26932001 0.036320001 -0.053679999
0.33549002 0.048999999 -0.043529999
0.19117001 0.055640001 0.044890001
0.29681 0.032760002 0.038729999
0.21492001 -0.05618 0.044190001
0.36592001 -0.046709999 0.037939999
0.30610001 0.03073 0.03026
0.3416 0.048999999 0.042470001
0.24299002 0.050530002 0.052960001
0.31439 0.048999999 -0.045809999
0.29341 0.048999999 -0.048560001
0.30861002 0.046879999 -0.049529999
0.32968003 0.044969998 -0.049260002
0.32842001 -0.03081 0.046039999
0.29713002 0.052269999 0.043359999
0.31815001 0.051679999 0.041700002
0.29105002 -0.01946 -0.0079100002
0.37780002 -0.047019999 0.00089999998
0.37002 -0.04758 -0.018680001
0.27215999 -0.054340001 0.034120001
0.29268003 -0.05195 -0.04101
0.22232001 0.056960002 0.03661
0.24304001 0.057080001 0.03308
0.20164001 -0.057080001 -0.037919998
0.19155002 0.057470001 -0.0244
0.19164 0.057489999 -0.0244
0.19111001 0.055550002 -0.045279998
0.22656001 0.057330001 -0.022469999
0.23931001 0.057240002 0.0096199997
0.22387001 0.057319999 -0.0016899999
0.22807002 -0.040070001 -0.055319998
0.19124001 -0.056060001 -0.038720001
0.19112001 -0.056869999 0.024119999
0.19120002 -0.056329999 -0.01777
0.19116001 -0.056600001 0.0031699999
0.33144 0.056290001 0.022369999
0.32028002 0.035459999 0.044100001
0.34477001 0.045120001 0.04744
0.28281 -0.03559 -0.052990001
0.25654 0.036029998 -0.054400001
0.30925 0.055679999 -0.03348
0.28874001 0.05553 -0.037080001
0.31455001 -0.04961 -0.044289999
0.29384002 -0.051120002 -0.045499999
0.24276 -0.036710002 -0.054570001
0.22199 -0.036660001 -0.055629998
0.30507001 -0.036869999 -0.051369999
0.32584 -0.03692 -0.050299998
0.34661001 -0.036970001 -0.049229998
0.20122001 -0.03661 -0.056699999
0.28430003 -0.036819998 -0.05243
0.26353002 -0.036770001 -0.0535
0.26384002 -0.037 0.053509999
0.20155001 -0.037 0.05658
0.34689 -0.037 0.049400002
0.28460002 -0.037 0.052480001
0.30537 -0.037 0.051460002
0.32613 -0.037 0.05043
0.24307001 -0.037 0.054529998
0.22231001 -0.037 0.05556
0.24010001 0.01077 0.059599999
0.26372001 -0.036880001 -0.053920001
0.34664002 -0.036990002 -0.049279999
0.28444999 -0.036899999 -0.052760001
0.20154001 -0.036789998 -0.057399999
0.243 -0.036850002 -0.05508
0.30518001 -0.036929999 -0.051600002
0.32591 -0.036959998 -0.050439999
0.22227001 -0.036819998 -0.05624
0.27016002 0.02169 0.04569
0.28521001 -0.034139998 0.052700002
0.19653001 0.016310001 0.0581
0.20152001 -0.03678 -0.057349999
0.26358002 -0.036789998 -0.05359
0.28443003 -0.03689 -0.05271
0.32589 -0.03695 -0.050390001
0.24289 -0.036789998 -0.054850001
0.22220001 -0.03678 -0.0561
0.30512002 -0.03689 -0.051460002
0.27267 0.048999999 -0.051440001
0.2642 -0.037 0.053240001
0.20214002 -0.037 0.056139998
0.28488001 -0.037 0.052269999
0.34693 -0.037 0.049369998
0.30557001 -0.037 0.051309999
0.32625002 -0.037 0.050340001
0.24351001 -0.037 0.05421
0.22283001 -0.037 0.05517
0.20192002 -0.037 -0.056880001
0.24328001 -0.037 -0.054699998
0.34666002 -0.037 -0.049240001
0.28463 -0.037 -0.052519999
0.26395002 -0.037 -0.053610001
0.30531001 -0.037 -0.051430002
0.32598001 -0.037 -0.050340001
0.22260001 -0.037 -0.05579
0.29076999 -0.031319998 0.04527
0.26360002 -0.036800001 -0.053640001
0.22223002 -0.036800001 -0.056150001
0.24295001 -0.036819998 -0.054990001
0.30514002 -0.036910001 -0.051509999
0.24285001 -0.036759999 -0.054749999
0.20148002 -0.036759999 -0.057259999
0.24293001 -0.036809999 -0.05494
0.28439 -0.036869999 -0.052620001
0.22208001 -0.036710002 -0.055819999
0.30374002 -0.033799998 0.045929998
0.34637001 0.036990002 0.049529999
0.20210001 -0.037 0.056170002
0.26392001 -0.037 0.05345
0.28484002 -0.037 0.052299999
0.32621002 -0.037 0.05037
0.30545002 -0.037 0.051399998
0.24331 -0.037 0.05435
0.22271001 -0.037 0.055259999
0.26364002 -0.036830001 -0.05373
0.20188001 -0.036970001 -0.056869999
0.28458002 -0.036970001 -0.052499998
0.26363 -0.036819998 -0.053520001
0.32594001 -0.036970001 -0.050319999
0.24304001 -0.036869999 -0.054639999
0.22246002 -0.03692 -0.055750001
0.30517 -0.03692 -0.05139
0.23496002 -0.055969998 0.039500002
0.27253002 0.02537 0.04789
0.34215 0.047839999 -0.045370001
0.22212002 -0.036729999 -0.055909999
0.22437002 -0.03413 -0.056279998
0.24736002 -0.032820001 -0.055059999
0.26776001 -0.030610001 -0.054019999
0.26396 -0.037 0.05342
0.30549002 -0.037 0.051369999
0.22275001 -0.037 0.055229999
0.24343002 -0.037 0.054269999
0.34338 -0.034699999 0.049800001
0.26804 -0.030610001 0.053679999
0.22451001 -0.03413 0.055679999
0.24766001 -0.03283 0.0546
0.26367003 -0.036839999 -0.053539999
0.24318001 -0.03695 -0.054669999
0.30520999 -0.03695 -0.051399998
0.22251001 -0.03695 -0.055769999
0.20139001 -0.036710002 -0.057069998
0.20023002 0.048599999 -0.05686
0.26160002 0.04617 -0.05359
0.34342 0.042939998 -0.049240001
0.32296002 0.043749999 -0.050330002
0.28205001 0.045359999 -0.052510001
0.30251002 0.04456 -0.051419999
0.24114001 0.046980001 -0.054680001
0.22068001 0.047789998 -0.055769999
0.33831 0.053289998 0.037980001
0.2811 -0.0295 -0.043749999
0.28737003 -0.0295 -0.024259999
0.20202 -0.037 0.056230001
0.28476 -0.037 0.052359998
0.24323002 -0.037 0.054409999
0.24339001 -0.037 0.054299999
0.22247002 -0.037 0.055440001
0.20071001 0.05745 -0.018650001
0.21884002 0.05737 -0.02812
0.23159 0.05728 0.0039599999
0.21615002 0.05737 -0.00734
0.29038 -0.029449999 0.0039499998
0.20178001 -0.03692 -0.056839999
0.24295001 -0.036819998 -0.054609999
0.24314001 -0.03692 -0.05466
0.28449002 -0.03692 -0.052480001
0.22218001 -0.036770001 -0.055679999
0.25210002 -0.053610001 0.04899
0.23173001 -0.054389998 0.050379999
0.28523999 0.02359 0.031580001
0.27139002 0.02372 0.046599999
0.22701001 -0.034850001 -0.056109998
0.25268 -0.034090001 -0.054719999
0.27299002 -0.03224 -0.05367
0.25047001 -0.033640001 0.05443
0.23943001 0.056639999 0.036669999
0.20149001 -0.056839999 -0.04146
0.26403999 -0.037 0.05336
0.27740002 0.056770001 -0.031490002
0.25710002 0.056940001 -0.033100002
0.31800002 0.056419998 -0.02826
0.29770002 0.056589998 -0.02988
0.29140002 0.00112 0.01504
0.29090002 -0.01922 0.01446
0.24463001 0.052310001 0.05037
0.26480001 0.052340001 0.04761
0.19008002 0.038830001 -0.057700001
0.19023001 0.018479999 -0.058290001
0.29158002 0.00115 -0.01449
0.20133001 -0.036619999 -0.05745
0.22165 -0.036649998 -0.056310002
0.26227 -0.036589999 -0.05407
0.28259 -0.036619999 -0.05294
0.24196002 -0.036680002 -0.055179998
0.20133001 -0.036740001 -0.05742
0.20133001 -0.036559999 -0.057459999
0.22165 -0.036710002 -0.056299999
0.24196002 -0.036559999 -0.055199999
0.26227 -0.036649998 -0.054060001
0.32321 -0.036559999 -0.050700001
0.28259 -0.036559999 -0.052949999
0.30290002 -0.036589999 -0.051819999
0.22165 -0.036589999 -0.056329999
0.24196002 -0.036619999 -0.055190001
0.20133001 -0.036759999 -0.05742
0.22165 -0.036740001 -0.056299999
0.24196002 -0.036710002 -0.055179998
0.24196002 -0.036589999 -0.055199999
0.32321 -0.036589999 -0.050700001
0.28259 -0.036649998 -0.05294
0.34353 -0.036559999 -0.04958
0.30290002 -0.036559999 -0.051830001
0.30290002 -0.036619999 -0.051819999
0.26227 -0.036680002 -0.054060001
0.26227 -0.036559999 -0.054079998
0.24196002 -0.03655 -0.055210002
0.22165 -0.03655 -0.056329999
0.22165 -0.036559999 -0.056329999
0.32321 -0.03655 -0.050700001
0.34353 -0.03655 -0.04958
0.26227 -0.03655 -0.054079998
0.28259 -0.03655 -0.052960001
0.30290002 -0.03655 -0.051830001
0.20133001 -0.03655 -0.057459999
0.26377001 -0.036899999 -0.05356
0.29201001 0.0011399999 -0.01367
0.29100001 -0.01915 -0.01404
0.38246 0.053619999 -0.016109999
0.29136002 0.00115 -0.0149
0.29078001 -0.01915 -0.01445
0.20131001 -0.03669 0.05669
0.20131001 -0.036910001 0.056620002
0.22160001 -0.036740001 0.055670001
0.28246 -0.03669 0.052689999
0.24188001 -0.036800001 0.054650001
0.26217002 -0.036630001 0.0537
0.20131001 -0.036570001 0.05672
0.28246 -0.036570001 0.052719999
0.22160001 -0.03686 0.055640001
0.30275002 -0.036630001 0.0517
0.22160001 -0.036630001 0.0557
0.24189001 -0.03669 0.05469
0.24189001 -0.036570001 0.054719999
0.32303002 -0.036570001 0.050719999
0.26217002 -0.036740001 0.05367
0.20131001 -0.036970001 0.056609999
0.28246 -0.036740001 0.052669998
0.30275002 -0.036570001 0.051720001
0.22160001 -0.036570001 0.055720001
0.30274001 -0.03669 0.051690001
0.22160001 -0.036910001 0.05562
0.24188001 -0.03686 0.054639999
0.24189001 -0.036630001 0.054699998
0.34332001 -0.036570001 0.04972
0.32303002 -0.036630001 0.050700001
0.26217002 -0.036570001 0.053720001
0.26217002 -0.036800001 0.053649999
0.20131001 -0.03655 0.056729998
0.28246 -0.03655 0.052730002
0.26217002 -0.03655 0.05373
0.30275002 -0.03655 0.051729999
0.34332001 -0.03655 0.049729999
0.32303002 -0.03655 0.050730001
0.22160001 -0.03655 0.05573
0.24189001 -0.03655 0.054730002
0.3549 -0.048530001 0.02502
0.23998001 0.03435 0.061099999
0.20511001 -0.039969999 -0.056609999
0.22255 -0.037 0.055380002
0.26252002 -0.037 -0.053440001
0.20172001 -0.037 -0.05686
0.28278002 -0.037 -0.052310001
0.34358001 -0.037 -0.048889998
0.30305001 -0.037 -0.051169999
0.24225001 -0.037 -0.054579999
0.22198001 -0.037 -0.055720001
0.32332 -0.037 -0.050030001
0.24909002 -0.018340001 0.05745
0.24914001 0.00192 0.056159999
0.29223001 0.00119 -0.01268
0.22227001 -0.036819998 -0.055709999
0.2221 -0.037 0.05511
0.34332001 -0.037 0.049040001
0.32312 -0.037 0.05006
0.28271002 -0.037 0.052080002
0.26251 -0.037 0.053089999
0.24231002 -0.037 0.054099999
0.30292001 -0.037 0.051070001
0.20190001 -0.037 0.056120001
0.29159001 -0.01901 -0.01201
0.29229 0.00119 -0.01175
0.29155999 -0.01902 -0.01247
0.2922 0.00118 -0.01314
0.31501001 -0.049219999 -0.045710001
0.29522002 -0.049970001 -0.049759999
0.29245001 0.01331 0.01036
0.29138002 -0.019060001 -0.013
0.20188001 0.057 0.038770001
0.33447 0.052850001 -0.03957
0.32431 0.04654 0.047699999
0.27226001 -0.01085 0.034990001
0.27193999 -0.01114 -0.035110001
0.29051 -0.018929999 0.015
0.29127002 0.00122 -0.01502
0.29051 -0.018929999 -0.0148
0.29127002 0.00122 0.01522
0.29317001 -0.051059999 0.046870001
0.20186001 -0.037 0.05635
0.24917001 -0.01812 0.055240002
0.24916002 0.00199 0.05542
0.29114002 -0.01936 0.01404
0.29210001 0.00070999999 0.01379
0.27946001 -0.033550002 0.052999999
0.29476002 -0.050349999 -0.04834
0.23025 0.05728 0.02643
0.19936001 0.05745 0.027969999
0.21480002 0.057360001 0.01513
0.19936001 0.05745 0.00382
0.35807002 0.055879999 -0.03066
0.20159002 -0.036819998 -0.0568
0.29575002 0.05271 -0.043620002
0.31521001 0.053709999 -0.038899999
0.29405001 0.03119 0.036290001
0.24914001 -0.01819 0.055969998
0.2906 -0.018999999 -0.01469
0.27486002 -0.029379999 -0.043990001
0.29064 -0.01902 0.01482
0.22185001 -0.036759999 -0.056279998
0.24258001 -0.036789998 -0.055119999
0.32383001 -0.036669999 -0.050639998
0.34373 -0.036589999 -0.049559999
0.28404 -0.036850002 -0.0528
0.26248002 -0.036710002 -0.05404
0.30394 -0.036759999 -0.051720001
0.29222 0.00081 0.01311
0.29149002 -0.019060001 0.01199
0.26740003 0.03204 -0.053959999
0.22432001 0.035440002 -0.05621
0.24764001 0.034320001 -0.054960001
0.28422001 -0.037 -0.052469999
0.26272002 -0.037 -0.053470001
0.24287 -0.037 -0.054650001
0.34379002 -0.037 -0.048920002
0.32393003 -0.037 -0.050099999
0.30408001 -0.037 -0.051290002
0.22219001 -0.037 -0.055739999
0.23886001 0.01431 0.061099999
0.29186001 0.00085000001 0.01421
0.27525002 -0.0295 0.043749999
0.37552002 -0.046810001 -0.01867
0.29137 -0.019160001 0.01267
0.30394 -0.036830001 0.051580001
0.26241001 -0.036830001 0.053630002
0.34356001 -0.036600001 0.049699999
0.28413001 -0.036940001 0.052519999
0.22183001 -0.036940001 0.055599999
0.24260001 -0.036940001 0.054570001
0.32375002 -0.03672 0.050639998
0.36611 -0.04682 -0.036630001
0.20116001 0.057009999 -0.040910002
0.22095001 0.056559999 -0.04112
0.22071001 -0.055750001 -0.04487
0.33622003 0.048999999 -0.042789999
0.24303001 -0.037 0.054159999
0.34356001 -0.037 0.049070001
0.32384002 -0.037 0.05012
0.28440002 -0.037 0.05223
0.30412 -0.037 0.051180001
0.26275003 -0.037 0.05311
0.22234002 -0.037 0.055130001
0.22152001 -0.056370001 -0.04042
0.29801002 0.047040001 0.050439999
0.38055 -0.046629999 0.00089999998
0.37827 -0.04642 -0.01867
0.34405002 -0.034680001 -0.049630001
0.34776002 -0.0295 -0.04961
0.20496002 -0.04332 -0.056559999
0.26339 -0.050039999 -0.053169999
0.22444001 -0.045559999 -0.055429999
0.24391001 -0.047800001 -0.054299999
0.25766 0.045049999 0.053459998
0.27562001 0.037140001 0.052990001
0.31759 0.045290001 0.05026
0.25625002 -0.05545 -0.03119
0.37345001 -0.047339998 0.0054500001
0.25137001 0.03528 -0.054719999
0.29042 -0.019400001 0.00082999998
0.24237001 -0.036759999 -0.05514
0.32363001 -0.036649998 -0.050659999
0.28383002 -0.036819998 -0.052820001
0.30331001 -0.036680002 -0.05178
0.30073002 0.056650002 -0.02177
0.29604 0.056710001 0.0060800002
0.27053002 0.056990001 -0.023460001
0.27790999 0.056899998 0.022390001
0.30879 0.05658 0.020850001
0.31348002 0.056510001 -0.0070000002
0.28328001 0.056850001 -0.0086899996
0.26516002 0.05703 0.0076199998
0.34398001 0.044530001 0.048009999
0.27215001 0.048379999 -0.05246
0.33049002 0.044640001 -0.049600001
0.31104001 0.045880001 -0.050549999
0.29159001 0.04713 -0.051509999
0.21706001 -0.041919999 0.055270001
0.27549002 -0.040270001 0.052379999
0.25602001 -0.040819999 0.053339999
0.23654002 -0.041370001 0.054310001
0.21012001 0.05587 0.045109998
0.26839 0.05514 0.039790001
0.24896002 0.055380002 0.041560002
0.22954002 0.055629998 0.043340001
0.29254001 0.048999999 -0.0484
0.34853002 0.02764 -0.049529999
0.28567001 -0.022019999 -0.01983
0.26711002 -0.01423 -0.040139999
0.28643 -0.00187 -0.02004
0.27677 -0.0080500003 -0.03009
0.24266002 -0.037 -0.05463
0.28400999 -0.037 -0.052450001
0.32373002 -0.037 -0.050080001
0.30346 -0.037 -0.051210001
0.34424001 0.040119998 -0.049339999
0.27605 0.056779999 -0.031490002
0.31485 0.056460001 -0.028270001
0.25665 0.056940001 -0.033100002
0.29545 0.056620002 -0.02988
0.20475002 0.038029999 0.05649
0.25913 0.026660001 -0.054620001
0.20088001 0.02482 -0.057909999
0.2203 0.025429999 -0.056820001
0.23971 0.026040001 -0.055720001
0.19763002 0.01718 0.0581
0.20250002 -0.00165 0.0581
0.28575 -0.02194 0.01994
0.28651002 -0.0018 0.020160001
0.26751 -0.01387 0.039930001
0.27701002 -0.0078299996 0.03004
0.24338001 -0.05607 0.02399
0.24754001 -0.055890001 -0.0079399999
0.25382 -0.055550002 0.0076299999
0.29046002 -0.019400001 -0.0023099999
0.21681002 0.051600002 -0.05486
0.33055001 0.04445 -0.049690001
0.31122002 0.045329999 -0.050829999
0.28518 0.046950001 -0.05218
0.24494001 -0.023159999 -0.055489998
0.24236001 -0.036910001 0.0546
0.28389001 -0.03692 0.052540001
0.30322 -0.036740001 0.05164
0.32351002 -0.03669 0.050659999
0.24672002 -0.032590002 -0.05511
0.28425002 -0.03407 -0.05297
0.34552002 0.03706 0.049550001
0.32360002 -0.037 0.050099999
0.28416002 -0.037 0.052209999
0.24279001 -0.037 0.054140002
0.30340001 -0.037 0.051109999
0.19895001 0.0055 -0.058350001
0.22854 -0.056669999 0.032669999
0.2906 -0.019239999 0.00446
0.29187 0.01481 -0.0033100001
0.24697001 -0.032600001 0.054639999
0.28893 0.0495 -0.047970001
0.30789 0.050489999 -0.04532
0.20942001 0.037530001 0.0581
0.24406001 0.05122 0.052099999
0.19936001 0.05745 -0.00825
0.23293 0.05728 -0.0064300001
0.24569002 0.057190001 0.025660001
0.21749002 0.05737 -0.017729999
0.21481001 0.057360001 0.0272
0.19936001 0.05745 0.01589
0.21480002 0.057360001 0.0030499999
0.23024002 0.05728 0.01436
0.19131002 -0.057050001 -0.03238
0.19131002 -0.057330001 0.02502
0.19131002 -0.057240002 0.0058900001
0.19131002 -0.05714 -0.01324
0.19123001 -0.057 -0.01324
0.19113001 -0.057 0.02502
0.19128001 -0.057 -0.03238
0.19118001 -0.057 0.0058900001
0.25807002 0.044089999 0.053509999
0.27575999 0.036819998 0.052999999
0.29777002 0.025529999 -0.01079
0.38160002 -0.04648 0.00113
0.38142002 -0.04597 -0.017969999
0.24941 0.021579999 0.055029999
0.26289001 -0.036759999 -0.054000001
0.32508001 -0.036839999 -0.050519999
0.34415001 -0.03664 -0.049520001
0.30435002 -0.036819998 -0.051679999
0.30352002 -0.036699999 -0.051759999
0.34051001 -0.048810001 0.039870001
0.24653001 0.057190001 -0.0082900003
0.2529 0.057149999 0.0077499999
0.25828001 0.057100002 -0.023320001
0.34420002 -0.037 -0.04896
0.30449 -0.037 -0.05133
0.32516003 -0.037 -0.050239999
0.26313001 -0.037 -0.053509999
0.30367002 -0.037 -0.051240001
0.20075001 0.05717 -0.039799999
0.21971001 0.057050001 -0.037810002
0.28318 0.02526 -0.03624
0.31047001 -0.051709998 -0.031819999
0.21608001 0.054079998 -0.05136
0.23506001 0.053410001 -0.050099999
0.39678001 -0.04242 0.01307
0.33687001 0.050810002 0.04208
0.34426001 0.036479998 -0.049509998
0.32541001 0.038899999 -0.050439999
0.27433002 -0.032510001 0.053300001
0.23495001 0.052480001 -0.051660001
0.24906 -0.018959999 0.0581
0.24907002 0.038070001 0.0581
0.24907002 0.019060001 0.0581
0.24906 4.9999999e-05 0.0581
0.19121002 -0.055830002 -0.03971
0.19113001 -0.056370001 0.0021800001
0.19112001 -0.05565 -0.02076
0.29413003 -0.043219998 -0.051520001
0.23489001 0.052019998 -0.05243
0.21602002 0.053619999 -0.052140001
0.27705002 -0.053819999 -0.035319999
0.34423 0.041930001 -0.049249999
0.32540002 0.040720001 -0.050349999
0.30332002 0.04355 -0.051430002
0.26241001 0.045159999 -0.053599998
0.34403002 -0.036660001 0.049660001
0.30441001 -0.03689 0.051539999
0.26289001 -0.03689 0.05359
0.30346 -0.036770001 0.051619999
0.32518002 -0.03689 0.05051
0.21631001 0.054839998 -0.04902
0.23514001 0.053660002 -0.049320001
0.21412002 0.035069998 0.061099999
0.21623001 0.054579999 -0.049800001
0.26877999 0.02276 -0.0482
0.22131 0.056869999 0.037390001
0.24002001 0.056809999 0.035429999
0.31061 0.055300001 -0.034699999
0.20489001 0.038410001 0.057089999
0.19880001 -0.0052999998 -0.058370002
0.26323003 -0.037 0.053149998
0.32529002 -0.037 0.050250001
0.34404001 -0.037 0.049109999
0.3046 -0.037 0.05122
0.30364001 -0.037 0.051130001
0.37927002 0.05015 0.027070001
0.38666001 0.053320002 -0.00019000001
0.29194 0.01481 0.0050900001
0.38037002 -0.046119999 -0.018200001
0.38847002 0.048969999 0.01377
0.28101 -0.0295 0.037590001
0.28341001 -0.036759999 -0.052859999
0.31947002 -0.033980001 0.045139998
0.28128001 0.049279999 0.048379999
0.26281002 0.049849998 0.051089998
0.2836 -0.037 -0.0524
0.31138 -0.034000002 -0.049260002
0.24019001 0.048190001 -0.05466
0.19023001 -0.00102 -0.058529999
0.19008002 -0.01967 -0.058430001
0.29390001 -0.05314 -0.029130001
0.27531999 -0.054340001 -0.030169999
0.30863002 -0.05215 -0.02104
0.25793001 0.044410001 0.0535
0.21647002 0.052329998 -0.054680001
0.23504001 0.051589999 -0.05328
0.22012001 0.056880001 -0.038910002
0.31814 0.050220001 0.043269999
0.29972002 0.04941 0.045779999
0.19451001 -0.05745 -0.0089800004
0.19451001 -0.05745 0.02575
0.20033 -0.057349999 0.0080800001
0.34328002 0.047529999 0.04507
0.28293002 0.035379998 -0.05297
0.27650002 0.056779999 -0.031490002
0.31530002 0.056460001 -0.028270001
0.29680002 0.056609999 -0.02988
0.19725001 -0.00116 0.05776
0.19588001 0.017340001 0.05799
0.21632001 0.052760001 -0.053830002
0.19167002 0.057229999 0.01139
0.19158001 0.057319999 -0.0071200002
0.19150001 0.057410002 -0.025629999
0.19176 0.05714 0.02991
0.20493001 0.038320001 0.0581
0.20431001 0.05638 0.043540001
0.24338001 -0.0294 -0.055199999
0.28422001 0.038589999 0.052499998
0.25066 0.055179998 0.042289998
0.23238 0.055289999 0.04456
0.21409 0.055399999 0.04682
0.26895002 0.055070002 0.040029999
0.31923002 0.03548 -0.044629999
0.21557002 -0.046250001 0.055229999
0.34793001 -0.048420001 -0.038229998
0.28341001 -0.03686 0.052590001
0.28561002 0.028039999 -0.038240001
0.29146001 -0.0041999999 -0.0077599999
0.29211003 0.01414 -0.0077900002
0.26048002 0.05706 -0.03111
0.27879 0.056869999 -0.030069999
0.29709002 0.056680001 -0.029030001
0.3154 0.056480002 -0.02799
0.28368002 -0.037 0.052159999
0.19900002 -0.00133 0.057870001
0.35211 0.053089999 -0.038690001
0.29378 -0.043219998 0.05139
0.29289001 -0.0295 0.00245
0.29846001 -0.0295 0.01987
0.28397 -0.0295 0.02272
0.22517002 -0.056779999 0.0079399999
0.22039001 -0.056949999 -0.0084100002
0.21831001 -0.057009999 0.024879999
0.21478002 -0.015790001 0.068939999
0.32475001 -0.037 -0.050190002
0.32466 -0.036789998 -0.050560001
0.24539001 -0.0083900001 -0.055769999
0.24675001 0.034030002 -0.055020001
0.32852 0.055980001 -0.030549999
0.36216 0.055819999 -0.00066000002
0.34756002 0.05604 0.02844
0.36546001 0.05576 0.025350001
0.34080002 -0.0493 0.036589999
0.24972001 0.05717 -0.00026999999
0.25509 0.057119999 -0.031350002
0.23696001 0.057259999 -0.032359999
0.24334002 0.057209998 -0.016310001
0.20071001 0.05745 -0.03438
0.21883 0.05737 -0.033369999
0.19840001 -0.0198 -0.05816
0.25799 -0.022949999 0.049660001
0.28064001 0.029850001 0.047200002
0.29382002 0.030549999 0.034759998
0.31186002 -0.044509999 -0.05051
0.29417002 -0.0484 -0.05136
0.32959002 -0.0458 -0.049490001
0.25257 0.054260001 -0.045419998
0.26906002 -0.031060001 -0.053929999
0.38387001 -0.04589 0.018990001
0.21584001 0.055429999 -0.047619998
0.26954001 0.055459999 -0.040130001
0.25164002 0.05545 -0.042629998
0.23374 0.055440001 -0.045120001
0.20719001 -0.057229999 -0.0088799996
0.21301001 -0.05714 0.0081799999
0.21509001 -0.057080001 -0.025110001
0.26608002 0.05192 0.048129998
0.27017 -0.029309999 -0.048980001
0.24913001 0.038729999 0.056370001
0.19451001 -0.05745 0.0083900001
0.21405001 -0.05711 -0.0084699998
0.20615001 -0.057259999 0.00777
0.21197002 -0.05717 0.02482
0.19451001 -0.05745 -0.026350001
0.20033 -0.057349999 -0.0092900004
0.20823 -0.0572 -0.025520001
0.25745001 -0.023159999 -0.050030001
0.23806001 0.057 -0.035360001
0.29418001 -0.05009 0.050050002
0.23149002 -0.0035600001 0.068960004
0.27790999 -0.05356 -0.037900001
0.29476002 -0.05288 -0.0317
0.23307002 -0.05649 -0.00832
0.23785001 -0.05632 0.0080300001
0.24200001 -0.056139998 -0.0239
0.24003002 -0.055780001 -0.037579998
0.25736001 -0.05522 -0.032990001
0.29387 0.053520001 -0.041850001
0.30535001 0.048009999 0.04764
0.3247 -0.036830001 0.050560001
0.26942003 -0.03107 0.053599998
0.28916001 0.048129998 -0.050489999
0.27133 0.04871 -0.05212
0.31023002 0.046220001 -0.050209999
0.22688001 -0.00266 0.068939999
0.27297002 -0.054480001 0.03053
0.25515002 -0.05548 0.03139
0.34489 -0.042399999 0.048870001
0.34892002 0.045060001 -0.047419999
0.29270002 -0.0295 -0.031160001
0.24918002 0.020959999 0.055070002
0.24921 0.038800001 0.054200001
0.22156002 -0.00392 0.068960004
0.32480001 -0.037 0.050209999
0.34910002 0.043409999 -0.048689999
0.33517 0.050250001 -0.042780001
0.39173001 -0.044119999 -0.01211
0.25134 -0.03382 -0.0548
0.27000001 0.05486 -0.041529998
0.25304002 0.05367 -0.04682
0.23421001 0.054850001 -0.046519998
0.38805002 0.051660001 0.01078
0.24909002 0.038690001 0.05745
0.24914001 0.02093 0.056159999
0.24909002 0.00066999998 0.05745
0.31188002 -0.0471 -0.05043
0.31184 -0.041919999 -0.050590001
0.29411 -0.04064 -0.05161
0.34730002 -0.044500001 -0.048549999
0.32957 -0.04321 -0.049570002
0.36289001 0.033909999 0.047839999
0.23204002 -0.02626 0.06899
0.31189001 -0.048390001 -0.050379999
0.32960001 -0.047090001 -0.049449999
0.34731001 -0.045790002 -0.04851
0.29418001 -0.049690001 -0.051320001
0.29547 0.051800001 0.04439
0.19204001 0.0085100001 0.05793
0.23540002 0.02293 -0.056049999
0.21771002 0.023560001 -0.057020001
0.25309002 0.022290001 -0.055089999
0.20002002 0.0242 -0.057980001
0.19617002 0.057470001 -0.02152
0.24659002 -0.052530002 0.0535
0.26425999 -0.05156 0.05271
0.21574001 0.05091 0.054299999
0.29635 0.056609999 -0.02988
0.30017 0.033799998 -0.038550001
0.27567002 0.03435 -0.053410001
0.24310002 0.05274 0.04967
0.21586001 -0.02038 0.068949997
0.23131001 0.046390001 0.0581
0.21372001 0.047180001 0.0581
0.31816 -0.032230001 -0.040520001
0.37888002 0.055520002 -0.01514
0.32459 0.041730002 -0.050349999
0.22072001 0.05669 0.038630001
0.25438002 -0.054200001 0.044640001
0.19094001 -0.045340002 -0.057190001
0.27031001 0.051690001 -0.048689999
0.25299001 0.051380001 -0.051279999
0.19332001 -0.045620002 0.056400001
0.23117001 0.05429 0.0473
0.24866001 0.053520001 0.046870001
0.26615 0.05274 0.046440002
0.21369001 0.055070002 0.047740001
0.20942001 -0.018580001 0.0581
0.23493001 -0.0053599998 0.068970002
0.23937002 -0.01429 0.068949997
0.35758001 0.033950001 0.04888
0.21868001 -0.0055999998 0.068970002
0.31082001 -0.04448 0.05051
0.32787001 -0.045740001 0.04964
0.29383001 -0.0484 0.051240001
0.34502 -0.037 -0.049059998
0.19098002 -0.045620002 0.05638
0.37321001 -0.047350001 0.01262
0.29584002 -0.0295 -0.02142
0.34498 -0.036759999 -0.04944
0.25433001 -0.055339999 0.034979999
0.23802 -0.021 0.068949997
0.20493001 -0.019780001 0.0581
0.21732001 -0.02293 0.068960004
0.27094001 0.048999999 -0.051109999
0.23907001 -0.0121 0.068949997
0.22699001 -0.00047999999 0.061099999
0.19332001 -0.045510001 -0.057179999
0.24600002 0.0042400002 -0.055769999
0.23819001 -0.0097000003 0.069059998
0.21352001 0.055470001 0.046580002
0.25010002 0.05525 0.04205
0.23067001 0.055489998 0.04383
0.19116001 -0.057119999 0.025909999
0.19142 -0.05742 0.025909999
0.19117001 -0.05717 0.0085399998
0.19118001 -0.057209998 -0.0088299997
0.19126001 -0.05731 0.025909999
0.19157001 -0.05748 0.025909999
0.19135001 -0.057390001 0.025909999
0.19157001 -0.05748 -0.02619
0.19149001 -0.05745 0.0085399998
0.19157001 -0.05748 0.0085399998
0.19142 -0.05742 0.0085399998
0.19149001 -0.05745 -0.0088299997
0.19157001 -0.05748 -0.0088299997
0.19122002 -0.057259999 0.0085399998
0.19113001 -0.057119999 -0.0088200001
0.19112001 -0.057069998 0.0085399998
0.19110002 -0.05703 0.025909999
0.19114001 -0.05717 -0.02619
0.19116001 -0.057209998 -0.02619
0.19129001 -0.057349999 0.025909999
0.19125001 -0.05731 0.0085399998
0.19121002 -0.057259999 -0.0088299997
0.19160001 -0.057489999 -0.02619
0.19160001 -0.057489999 0.025909999
0.19160001 -0.057489999 0.0085399998
0.19160001 -0.057489999 -0.0088299997
0.19143002 -0.045669999 0.05649
0.19090001 -0.045669999 0.055989999
0.20108001 -0.048220001 0.05596
0.27073002 0.048999999 0.051180001
0.28788 0.048999999 0.048500001
0.19888002 -0.057379998 0.029859999
0.26018 0.02715 -0.05455
0.24288002 0.027519999 -0.055489998
0.22135001 0.02592 -0.056740001
0.22406001 -0.00284 0.068949997
0.27707002 -0.054269999 -0.0075599998
0.28313002 -0.05387 0.0072900001
0.27545002 -0.054370001 0.02282
0.19121002 -0.056600001 -0.01596
0.19128001 -0.056869999 -0.03328
0.19117001 -0.056869999 0.0049800002
0.19124001 0.057259999 0.025730001
0.19115001 0.057039998 -0.026240001
0.19118001 0.057119999 -0.0089100003
0.19121002 0.057190001 0.0084100002
0.34666002 -0.0295 0.049849998
0.22959001 -0.027240001 0.068949997
0.19128001 0.057319999 0.025730001
0.19143002 0.057440002 -0.02623
0.19138001 0.057399999 -0.0089100003
0.19133002 0.057360001 0.0084100002
0.19148001 0.057459999 -0.02623
0.19162001 0.057489999 0.025730001
0.19157001 0.05748 0.0084100002
0.19153 0.057470001 -0.0089100003
0.19131002 0.057270002 -0.02623
0.19139001 0.057379998 -0.02623
0.19129001 0.057300001 0.0084100002
0.19126001 0.057229999 -0.0089100003
0.1913 0.05728 -0.0089100003
0.32885 -0.04961 -0.036010001
0.29500002 0.05288 0.042040002
0.22949001 -0.0026400001 0.068939999
0.19918001 0.019269999 -0.058150001
0.21456002 -0.01291 0.068949997
0.34490001 -0.038380001 0.048939999
0.32785001 -0.041140001 0.04975
0.31080002 -0.03988 0.050620001
0.29050002 -0.053399999 0.02967
0.23679 -0.00721 0.069059998
0.34582001 -0.033020001 -0.049589999
0.24922001 0.05717 -0.02383
0.23109001 0.057300001 -0.024839999
0.25022 0.05717 0.023290001
0.23746002 0.057259999 -0.0088
0.25559002 0.057130001 -0.0077900002
0.24384001 0.057220001 0.0072499998
0.25316 0.05277 -0.048950002
0.27037001 0.05215 -0.047910001
0.38395 0.045060001 0.03012
0.23430002 -0.025149999 0.06899
0.22595002 -0.044160001 -0.055369999
0.24846001 -0.043609999 -0.05412
0.26490003 -0.048640002 -0.05311
0.25384003 -0.05514 0.038570002
0.25993001 0.057050001 -0.03139
0.29655001 0.05666 -0.029309999
0.27714002 0.056820001 -0.030920001
0.28292 0.050639998 -0.048670001
0.26592001 0.050179999 -0.051309999
0.37090001 0.03348 0.0451
0.30669001 0.03548 -0.045329999
0.23892 -0.05601 -0.035780001
0.19017 0.0086500002 0.057300001
0.25310001 0.052299999 -0.049729999
0.34516001 -0.03737 -0.048799999
0.31092 -0.038869999 -0.050689999
0.2938 -0.039620001 -0.05164
0.26409 -0.03737 -0.053350002
0.22356001 -0.03737 -0.05562
0.32804 -0.038120002 -0.04975
0.24697001 -0.038120002 -0.054299999
0.19090001 -0.04555 -0.056779999
0.28377002 -0.0295 -0.047200002
0.29537001 -0.0295 -0.03461
0.19132002 -0.04555 -0.057289999
0.31085002 -0.04707 0.050439999
0.31080002 -0.041889999 0.050590001
0.34489 -0.044410001 0.048840001
0.32785001 -0.039129999 0.04978
0.32785001 -0.04315 0.049710002
0.29375002 -0.040630002 0.051460002
0.35953 0.02551 0.04741
0.29384002 -0.049690001 0.051199999
0.34490001 -0.045710001 0.048799999
